# .PCD v0.7 - Point Cloud Data file format
VERSION 0.7
FIELDS x y z normal_x normal_y normal_z
SIZE 4 4 4 4 4 4
TYPE F F F F F F
COUNT 1 1 1 1 1 1
WIDTH 591
HEIGHT 1
VIEWPOINT 0 0 0 1 0 0 0
POINTS 591
DATA ascii
-0.006576733388 -0.02528843411 0.01291570769 0 -1 0
-0.007738131944 -0.02528843411 0.01420948759 0 -1 0
-0.008203417028 -0.02528843411 0.01544774452 0 -1 0
-0.009558359505 -0.02528843411 0.01357415545 0 -1 0
-0.006439904609 -0.02528843411 0.00876991644 0 -1 0
-0.009355663143 -0.02528843411 0.01244405926 0 -1 0
-0.00107576703 -0.02528843411 0.00718935097 0 -1 0
-0.0008936816088 -0.02528843411 0.00487888162 0 -1 0
-0.003563105366 -0.02528843411 0.01648804745 0 -1 0
-0.003121029383 -0.02528843411 0.01068714985 0 -1 0
-0.004695498314 -0.02528843411 0.01353086846 0 -1 0
-0.004047380255 -0.02528843411 0.01173893431 0 -1 0
0.001760579226 -0.02528843411 0.01472234784 0 -1 0
0.00176446293 -0.02528843411 0.01212068397 0 -1 0
4.562619571e-05 -0.02528843411 0.0007888852255 0 -1 0
0.0004198067285 -0.02528843411 0.01605526937 0 -1 0
-0.00053281928 -0.02528843411 0.008909889974 0 -1 0
-0.0008099697204 -0.02528843411 0.01453507194 0 -1 0
0.007517786248 -0.02528843411 0.01468881294 0 -1 0
0.004686572636 -0.02528843411 0.009459827797 0 -1 0
0.004573099832 -0.02528843411 0.01409011822 0 -1 0
0.005373125135 -0.02528843411 0.01632368565 0 -1 0
0.003428479768 -0.02528843411 0.0129101553 0 -1 0
0.002630944735 -0.02528843411 0.01286149399 0 -1 0
0.01130659816 -0.02528843411 0.01382072089 0 -1 0
0.008219544832 -0.02528843411 0.009516569138 0 -1 0
0.01050749274 -0.02528843411 0.01427062348 0 -1 0
0.002579399537 -0.02528843411 0.003964176984 0 -1 0
0.007438414346 -0.02528843411 0.01227310245 0 -1 0
0.001516454746 -0.02528843411 0.002785417801 0 -1 0
0.004300947515 -0.02528843411 0.002907622338 0 -1 0
0.01090677496 -0.02528843411 0.006790912975 0 -1 0
0.007362229768 -0.02528843411 0.006215929628 0 -1 0
0.004832650478 -0.02528843411 0.00350371919 0 -1 0
0.0110452185 -0.02528843411 0.01032075277 0 -1 0
0.009562803616 -0.02528843411 0.00842302507 0 -1 0
0.01096516694 -0.02528843411 0.002982839145 0 -1 0
0.008971519243 -0.02528843411 0.002832969542 0 -1 0
0.008928704216 -0.02528843411 0.003584147301 0 -1 0
0.01032519147 -0.02528843411 0.004241136267 0 -1 0
0.005527702215 -0.02528843411 0.002884158436 0 -1 0
0.0160437063 -0.02528843411 0.007766513074 0 -1 0
0.00528956799 -0.02528843411 0.0001038487951 0 -1 0
0.01240610665 -0.02528843411 0.0005297098482 0 -1 0
0.0175891366 -0.02528843411 0.001668518975 0 -1 0
0.01743194198 -0.02528843411 0.001310793612 0 -1 0
0.01015481671 -0.02528843411 0.0008504971614 0 -1 0
0.01607462531 -0.02528843411 0.003867641231 0 -1 0
0.01446875193 -0.02528843411 0.00269555354 0 -1 0
0.01489664506 -0.02528843411 -0.005129897973 0 -1 0
0.01271919498 -0.02528843411 -0.003830323587 0 -1 0
0.01693314187 -0.02528843411 -0.003887791013 0 -1 0
0.01534758847 -0.02528843411 -0.003396913359 0 -1 0
0.009816886847 -0.02528843411 -0.0008003415915 0 -1 0
0.01710336186 -0.02528843411 -0.001955227507 0 -1 0
0.008647636919 -0.02528843411 -0.005850991013 0 -1 0
0.006300137439 -0.02528843411 -0.004070984833 0 -1 0
0.01425181683 -0.02528843411 -0.006978260933 0 -1 0
0.01120219942 -0.02528843411 -0.006462521913 0 -1 0
0.01374600011 -0.02528843411 -0.005331446548 0 -1 0
0.01457991208 -0.02528843411 -0.006221501686 0 -1 0
0.009075546511 -0.02528843411 -0.009890554282 0 -1 0
0.008650568161 -0.02528843411 -0.009666314885 0 -1 0
0.006696017928 -0.02528843411 -0.005954660326 0 -1 0
0.003100442041 -0.02528843411 -0.002996482401 0 -1 0
0.01381408458 -0.02528843411 -0.01003827792 0 -1 0
0.005708063417 -0.02528843411 -0.004507687318 0 -1 0
0.006166756602 -0.02528843411 -0.01423980047 0 -1 0
0.004670782619 -0.02528843411 -0.009897617673 0 -1 0
0.004156985767 -0.02528843411 -0.007904645389 0 -1 0
0.005826919454 -0.02528843411 -0.009383894129 0 -1 0
0.009183010205 -0.02528843411 -0.01286547562 0 -1 0
0.007009851215 -0.02528843411 -0.01024976124 0 -1 0
0.00172580239 -0.02528843411 -0.01386037687 0 -1 0
0.001558025634 -0.02528843411 -0.009197435776 0 -1 0
0.00280825744 -0.02528843411 -0.0133448125 0 -1 0
0.003067221915 -0.02528843411 -0.01561226726 0 -1 0
0.003984194496 -0.02528843411 -0.01231338073 0 -1 0
0.003029337796 -0.02528843411 -0.00772342249 0 -1 0
-0.0001125408114 0.04460340496 0.0009344751284 -0.006631753666 0.9978027765 0.06592146181
0.002973330988 0.02733021123 -0.002405387541 0.3092643628 -0.9089092669 -0.2797132432
0.002366468369 0.02731864625 0.002956052719 0.2692227963 -0.9089093241 0.3184382617
-0.002964103678 0.02721225499 0.001970851166 -0.3587821699 -0.9089093198 0.2125069482
-0.002146390048 0.0275148899 -0.00363850775 -0.200399639 -0.9089092722 -0.3656828128
0.002696888052 0.02812734943 0.004460488838 0.2870083178 -0.8458687106 0.4495913143
-0.003060273495 0.0278663881 0.003703854933 -0.3163968372 -0.8458687157 0.4294172298
-0.004405673388 0.02780496154 -0.001666221412 -0.4910664712 -0.8458687267 -0.2082302043
0.0001796265313 0.02757886317 -0.00434798512 0.01782348255 -0.8458687827 -0.5330931682
0.004759897217 0.02791271579 -0.001064156399 0.5227029535 -0.8458686741 -0.106244099
0.003586405203 0.02848202426 0.004386487852 0.4134517095 -0.7680524111 0.4890329003
-0.002218951421 0.02876870278 0.00558360581 -0.2301603424 -0.7680525231 0.597596468
-0.005935332714 0.02876035436 0.0009015438392 -0.6346730222 -0.7680524877 0.08535532198
-0.003420757195 0.02864354345 -0.004768172908 -0.3798646083 -0.7680524711 -0.515556283
0.002600965755 0.02885955374 -0.005548211031 0.2695610021 -0.7680524866 -0.580889184
0.006103330883 0.0288458777 -0.0002500152598 0.6389567283 -0.7680525825 -0.04277300322
0.004587407105 0.02982346213 0.005334429298 0.4752610145 -0.6768483676 0.5621416685
-0.001112922809 0.0292894922 0.006461185873 -0.1706481828 -0.6768482739 0.7160695579
-0.0059403729 0.0292677859 0.002708813028 -0.6777111923 -0.6768481771 0.2873744684
-0.006241898524 0.02976282179 -0.003171567541 -0.6333610415 -0.6768481735 -0.3751404286
-0.0009465832675 0.02923689416 -0.006443688015 -0.0736826044 -0.6768482792 -0.7324256145
0.004675358742 0.02947669364 -0.004853983238 0.4752612458 -0.6768483589 -0.5621414833
0.007069870011 0.02986218024 0.00029111891 0.817115245 -0.5738733401 0.05469977977
0.004248751342 0.02994738876 0.005743599415 0.5287330133 -0.5738731592 0.6253886773
-0.00127298911 0.03003898098 0.007090189124 -0.1898479013 -0.573873162 0.7966350283
-0.006836561666 0.03077979511 0.003594242271 -0.7046208353 -0.5738733991 0.4173473377
-0.007078994282 0.0303935859 -0.002347453259 -0.7898465189 -0.5738730294 -0.2163613245
-0.003457100817 0.03024311299 -0.006481939271 -0.3935696824 -0.5738729307 -0.7181732135
0.002779139621 0.03031459558 -0.006863973645 0.3447221117 -0.5738729085 -0.7428570189
0.007075192706 0.03053004807 -0.002621974105 0.7736311979 -0.5738733298 -0.2686338977
0.007599615743 0.03180697986 0.003272583929 0.7920492272 -0.4609399116 0.4002404524
0.003223163745 0.03091057008 0.007092763045 0.3735506259 -0.4609401487 0.8049808129
-0.003040432755 0.03123398459 0.007357144809 -0.3189497879 -0.4609403542 0.8281334571
-0.007466794782 0.03163219812 0.003314372661 -0.8170134287 -0.460939963 0.3464439461
-0.007435314941 0.03177600581 -0.003591386565 -0.8170132287 -0.4609403726 -0.346443873
-0.003660484653 0.03136402398 -0.007157794876 -0.4264831574 -0.4609403295 -0.778232696
0.002731918625 0.03086532235 -0.007295827332 0.26292423 -0.4609401299 -0.8475877807
0.007476266818 0.03186261571 -0.003592197114 0.7920491721 -0.4609400308 -0.4002404238
0.008117955817 0.03200870928 0.001976406309 0.9215702966 -0.3400298691 0.1873175819
0.004912632579 0.03260793661 0.007021667393 0.5060202923 -0.3400300039 0.7926683167
-0.0005592666945 0.03210056715 0.008363564307 -0.09413164642 -0.3400300062 0.9356916308
-0.006695129942 0.03272934258 0.005409687399 -0.7380369436 -0.3400298429 0.5828217359
-0.00857598333 0.03263383434 0.0004685891945 -0.9404146045 -0.3400299571 0
-0.006762066941 0.03212466199 -0.004983582296 -0.7380368115 -0.3400298374 -0.5828219063
-0.001428802319 0.03286167509 -0.008564115719 -0.09413112541 -0.3400299786 -0.9356916933
0.004956372157 0.03255506459 -0.006982505878 0.5060205382 -0.3400300125 -0.7926681559
0.008337115534 0.03253170436 -0.001858994606 0.921570322 -0.3400298486 -0.1873174943
0.007893012182 0.03411321337 0.004234325775 0.8719912619 -0.2132384298 0.4406365976
0.004051515199 0.03309115008 0.007742603489 0.4112534603 -0.2132384972 0.8862279248
-0.002097706553 0.03341857718 0.008546229071 -0.2264882464 -0.2132382707 0.9503854556
-0.006975927324 0.03325570146 0.005310908808 -0.766749217 -0.2132386899 0.6054955817
-0.008873482226 0.0339737176 -0.0009966188734 -0.9682829495 -0.2132383606 -0.1302210858
-0.006452641579 0.03326386535 -0.005967745696 -0.6792027929 -0.213238685 -0.7022911286
-0.0003389982201 0.03372840387 -0.008889308325 -0.09779317207 -0.2132387203 -0.972093485
0.004694818716 0.03322292463 -0.007404563402 0.5257063329 -0.2132385131 -0.823506034
0.008475151482 0.03340621084 -0.002433729984 0.9229417937 -0.213238728 -0.3204804055
0.008205411872 0.03454011792 0.003724806368 0.8894565086 -0.08276885814 0.4494623848
0.003390120218 0.03540537918 0.008428713454 0.4194904888 -0.0827686552 0.903978473
-0.001511631192 0.03485035987 0.008918638631 -0.2310248289 -0.08276866112 0.9694208978
-0.006746618106 0.03486215891 0.006025540809 -0.7821064535 -0.08276852927 0.6176235633
-0.009020797689 0.03472007042 0.0004295059481 -0.9965687615 -0.0827689774 0
-0.006794501035 0.03431682108 -0.005903263978 -0.7821066895 -0.08276852907 -0.6176232644
-0.001695190686 0.03435310148 -0.008843880249 -0.2310250403 -0.08276866303 -0.9694208473
0.004242237907 0.03484095785 -0.007993052003 0.4194903188 -0.08276865799 -0.9039785515
0.008108952106 0.03444993253 -0.003910527291 0.8894565806 -0.08276885723 -0.4494622426
0.008940906763 0.03549491486 0.001563945954 0.9787783166 0.04913030994 0.1989452677
0.005663904886 0.03620426419 0.007042921657 0.644848058 0.04912972652 0.7627301306
-0.0007135976826 0.03650375995 0.008992742667 -0.09997458615 0.04913009199 0.9937762908
-0.006118879184 0.03631196508 0.006644438227 -0.6943529993 0.04912992555 0.7179555437
-0.008966774028 0.03657907291 0.001000843134 -0.9898807083 0.04912974891 0.1331256966
-0.007737343152 0.03611261686 -0.004688969572 -0.8593625402 0.04912991091 -0.5090012539
-0.003788634676 0.03567790733 -0.008260969623 -0.3589741262 0.04912983204 -0.9320535587
0.002226240816 0.0362666413 -0.008776308965 0.2959175747 0.04913019848 -0.9539491667
0.007640273412 0.03607051741 -0.004859741087 0.8234458132 0.04912983828 -0.565263878
0.008918901113 0.03687335315 0.00108559438 0.9814368449 0.1801813562 0.06569930217
0.006560446678 0.03725671672 0.006011207172 0.729513878 0.1801815027 0.659806129
0.0009440750182 0.03716859136 0.00887874356 0.1636072086 0.1801814917 0.9699316014
-0.004977828737 0.03763876922 0.007296507465 -0.5834711908 0.1801813124 0.7918939728
-0.008513238119 0.03685967533 0.002884119921 -0.9486841291 0.1801812594 0.2598713855
-0.00807479417 0.03772788499 -0.003543586386 -0.9055819712 0.1801812544 -0.3840000117
-0.004299413233 0.03684527366 -0.007886092376 -0.4727161445 0.1801812769 -0.8625973303
0.001777610609 0.03670016093 -0.008836603606 0.1636072212 0.1801809484 -0.9699317002
0.006483420129 0.0366581187 -0.006271278711 0.7295139306 0.1801813206 -0.6598061206
0.009012658844 0.03672589797 8.941760979e-05 0.9814368477 0.180181328 0.06569933839
0.006256912983 0.03862903721 0.00579764327 0.7055684338 0.3081218612 0.6381489668
0.00120183525 0.03790654209 0.008682624469 0.158236499 0.3081218501 0.9380949504
-0.004889928545 0.03813182626 0.007190664569 -0.5643196573 0.3081219724 0.7659008908
-0.008209441341 0.03844800186 0.002545485641 -0.9175446829 0.3081220162 0.2513415566
-0.00760662212 0.03872166264 -0.003848306589 -0.8758573144 0.3081221047 -0.3713956562
-0.002883325236 0.03865670416 -0.008029815553 -0.3419213695 0.3081217792 -0.8877785458
0.002666382191 0.03886497234 -0.008032952803 0.2818608015 0.3081223103 -0.9086336613
0.007077394913 0.03792969012 -0.00517382205 0.784329824 0.3081219739 -0.5384120879
0.007803176509 0.03988318412 0.001680496855 0.8843920898 0.4307399706 0.1797601435
0.005064490255 0.03913960424 0.006630526237 0.582663675 0.4307395347 0.6891781302
-0.0003022295249 0.03961476351 0.008115533064 -0.09033436116 0.430739425 0.8979439019
-0.005890329168 0.0395356274 0.005633401256 -0.6273947936 0.4307394584 0.6487212745
-0.008398251214 0.03901219506 7.797585147e-05 -0.9024762878 0.4307395383 0
-0.005840418631 0.03981800782 -0.005505617471 -0.6273947407 0.4307394325 -0.6487213429
-0.0003234892732 0.03914998374 -0.008347788075 -0.09033353686 0.4307394332 -0.8979439809
0.005306726388 0.03979769203 -0.006025861512 0.5826640296 0.4307395334 -0.6891778312
0.007965257963 0.03991875093 -0.0002787900984 0.9004607404 0.4307399768 -0.0602787476
0.00565800651 0.04101284979 0.004579143265 0.6213913088 0.5459041114 0.562015607
0.0001591974459 0.04070828213 0.007463250371 0.02799685731 0.5459044734 0.8373795328
-0.004758474008 0.04095243276 0.005563006266 -0.582465591 0.5459042867 0.6022643482
-0.007650826414 0.04043082126 0.0004431120884 -0.8378473805 0.5459045402 0
-0.005252292334 0.04061796247 -0.005400035701 -0.5824654022 0.5459046333 -0.6022642166
0.0004544074265 0.04076999851 -0.00742458743 0.02799686335 0.5459042659 -0.8373796679
0.005228521368 0.04075963638 -0.005311397025 0.6213911753 0.5459043399 -0.5620155327
0.00734527865 0.04092075611 3.733464711e-05 0.835976709 0.5459039743 0.05596242281
0.003528605315 0.04179414658 0.005577929581 0.4081697236 0.6515991156 0.6393872608
-0.002101614099 0.04123256032 0.00677935351 -0.1758502864 0.6515991025 0.7378992386
-0.006643351007 0.04111479458 0.002741138822 -0.6983713583 0.651599052 0.2961353092
-0.00578421976 0.04182528155 -0.003148275728 -0.6526694448 0.6515988822 -0.3865766322
-0.001445067718 0.04106507767 -0.007095151296 -0.1758503189 0.6515989378 -0.7378993764
0.004513708005 0.04188713302 -0.004734384038 0.4897500041 0.651598935 -0.5792786561
0.006488697768 0.04190565332 0.0005203751587 0.7568695438 0.6515990964 0.05066666815
0.003257332742 0.04197909491 0.005552482944 0.3583499443 0.7459732799 0.5613458676
-0.003286002473 0.04197265059 0.005542637247 -0.3200560747 0.7459732152 0.5840274575
-0.006320915447 0.0420832375 0.0003560954561 -0.6659758037 0.7459733432 0
-0.003172790054 0.04256014077 -0.004855884119 -0.3950433632 0.7459732108 -0.5361573557
0.002811464072 0.04233460249 -0.005359116827 0.2803325363 0.7459732906 -0.6041005866
0.006288176056 0.04207778534 -0.0007997387261 0.6644887322 0.7459732286 -0.04448221041
0.002829240606 0.04297811852 0.004401248828 0.302233752 0.827349839 0.4734416575
-0.003103823318 0.04341241064 0.003387903181 -0.3904805653 0.8273498183 0.4037538931
-0.004430560466 0.04324093494 -0.001980006226 -0.5171170165 0.8273498348 -0.2192766338
-8.666554299e-05 0.04330782103 -0.004762555907 0.01876897599 0.8273497922 -0.5613733578
0.004983052253 0.04289024646 -0.002014992599 0.5306082951 0.8273498438 -0.1842473153
0.00190887254 0.0438305212 0.003244134213 0.2407918036 0.8942839693 0.3771942332
-0.003095950449 0.04388298422 0.001952032414 -0.3850296524 0.8942839717 0.2280533815
-0.002680550407 0.04353241861 -0.003448906235 -0.2654478797 0.8942839938 -0.3602687351
0.003195035914 0.04362717454 -0.00269389304 0.3318892995 0.8942839461 -0.3001761426
0.001134876539 0.04409781004 0.002891902388 0.1369806987 0.9455694634 0.2951858364
-0.002542800706 0.04428316955 -0.0003606252337 -0.3225167701 0.9455694587 -0.04337432207
0.001732160777 0.04405601135 -0.002729120794 0.1751029663 0.9455694714 -0.2742942323
-0.0005726788156 0.04439432771 0.002070463141 -0.04580425531 0.9802856631 0.1922029889
0.0009494335321 0.04445100694 -0.001619642549 0.1063172243 0.9802856646 -0.1665432786
-0.003108619742 0.02705970013 0.001837651244 0 1 0
0.000798550774 0.02705970013 0.003787006183 0 1 0
0.002387962371 0.02705970013 0.003217369628 0 1 0
-0.001916886059 0.02629520766 -0.004372611086 -0.4029710298 -0.2071029398 -0.8914722214
0.004102831872 0.02662474314 -0.002402668734 0.853502853 0.2938564062 -0.4303269601
0.001396621706 0.02681795689 0.004416734786 0.2678804715 0.5944833224 0.758175199
-0.004473942376 0.02692303361 -0.0007244536724 -0.5560273029 0.8281086238 -0.07120214538
0.004130063323 0.02705936888 0.0002522714656 0.08488204214 0.9963844828 0.003605742188
-0.003617926979 0.02529217244 0.002342242624 -0.7411744658 -0.4468920575 0.5009470034
-0.002724638193 0.02519621322 -0.003288462409 -0.5910316742 -0.4468918772 -0.6715424113
0.003086783192 0.02562713681 -0.003256630628 0.5910316133 -0.4468918751 -0.6715424663
0.003919568186 0.02600497632 0.002532053713 0.7411747561 -0.4468920522 0.5009465785
-9.256873558e-05 0.0246180684 0.006861902613 0 0.9831312691 0.1829013604
0.001936688463 0.0242414431 0.008686611407 0.04041632449 0.9832390239 0.1777851021
0.003778975064 0.024224835 0.008160367976 0.07691775078 0.9833223112 0.1648056187
0.004125530451 0.02454484222 0.005974366724 0.1093310073 0.9831512299 0.1464936519
0.006619392084 0.02436421986 0.004912335309 0.1410609032 0.9832136207 0.1157272551
0.006134513325 0.0245863759 0.003440438047 0.1560236518 0.9832145184 0.09458240254
0.00675044732 0.0246028019 0.001670687702 0.1761132347 0.9832472985 0.04699870695
0.008713890955 0.0242752905 -2.237707366e-05 0.1823983953 0.9832073087 0.005849224517
0.005669604942 0.02482933321 -0.0008752342687 0.1794983773 0.9832766838 -0.03077816868
0.008769418481 0.02417162589 -0.003030308841 0.1722693388 0.9832191297 -0.06002847599
0.006043184983 0.02449961656 -0.004458244203 0.149964047 0.9831418318 -0.1046084277
0.003599433553 0.02494194252 -0.003657948694 0.1319712583 0.9832349683 -0.1258275967
0.004601865302 0.02428659413 -0.007329207225 0.09959530571 0.983193863 -0.1530052381
0.002743136404 0.02442595851 -0.007427423661 0.06458049268 0.9832466282 -0.1704565283
0.001467190073 0.02421459209 -0.008939158805 0.02702232992 0.9832977788 -0.179986866
-0.0002506598027 0.0246145887 -0.006889694512 -0.011716409 0.9831372103 -0.1824937025
-0.002497049516 0.02430241094 -0.008207357708 -0.05355852309 0.9832266479 -0.1743469057
-0.003450941868 0.02443921649 -0.007030848981 -0.07924025374 0.9831817123 -0.1645439238
-0.004393628138 0.02470574189 -0.004661864606 -0.1208936066 0.9832157133 -0.1366440524
-0.004019789636 0.0249815597 -0.002824893436 -0.1517088135 0.9830923276 -0.1025373656
-0.005089406603 0.02486575247 -0.002192300666 -0.1659467106 0.983277582 -0.07501257254
-0.007001214575 0.02454674735 -0.00191947071 -0.1766766409 0.9832311673 -0.04518668186
-0.007261535129 0.02454229634 0.0005229821488 -0.1827994063 0.9831327545 0.005862085283
-0.008938213956 0.02420268527 0.001753241805 -0.1797030598 0.9832023653 0.03193617249
-0.005391443379 0.02478121236 0.002605923709 -0.1670768695 0.9831659278 0.07395997639
-0.006922847591 0.02429886398 0.005096040031 -0.1480183795 0.9832517773 0.106332035
-0.005459822998 0.02435762856 0.006217970958 -0.1221087097 0.9832707438 0.1351595629
-0.004228172239 0.02426792257 0.007654912374 -0.08975251889 0.9831314311 0.1593645965
-0.001956504929 0.02463601654 0.006482893468 -0.05172675449 0.983237207 0.1748397485
-0.0003279113431 0.02500584172 0.004765718216 -0.007741008232 0.9832254551 0.1822300229
-0.0009162963854 0.02414800895 -0.009322410744 -0.017085914 0.9637860866 -0.266128636
-0.006019563442 0.02412557408 -0.007246946344 -0.2775599114 0.9036923739 -0.326037711
-0.009588860408 0.0233654183 -0.001967022149 -0.9449479565 -0.2460815169 -0.2156785724
-0.008903391926 0.02405359689 0.003452119266 -0.5275275004 0.8168125598 0.2335208309
-0.002251944632 0.02376222579 0.009499341136 -0.2295790531 0.4252318601 0.8754834799
0.004841162816 0.02368877495 0.008500013973 0.473305103 0.2640247345 0.8404006301
0.008869234074 0.02355753061 0.004185580602 0.9102683215 0.09509951 0.4029487139
0.009610933981 0.02344389497 -0.001945464428 0.9720627034 -0.07660930414 -0.2218673369
0.005732138836 0.02404936949 -0.007664063508 0.373965019 0.8168126844 -0.4392803242
0.0008100315951 0.02335651976 -0.009756550175 0.06210002768 -0.2460820424 -0.9672575743
0.008709077004 -0.006448196519 0.01296192782 0.3436262572 0.7709252135 0.5362791349
-0.003114498856 -0.006246332553 0.01505932103 -0.1403012861 0.7710940324 0.621071286
-0.01501530741 -0.006066941691 0.002081635477 -0.6329397176 0.7709062355 0.07135047249
-0.01302542969 -0.006394322917 -0.008515653589 -0.5323524605 0.7710679368 -0.3493638427
-0.001891071682 -0.006316682677 -0.01534713477 -0.09352051325 0.7708222755 -0.6301483422
0.01441240478 -0.005585528285 0.002218644495 0.6212648117 0.7731297533 0.1276730916
0.01343967648 -0.00591510278 -0.006626975854 0.5642965387 0.7710499088 -0.2950448348
0.01272919937 -0.003758426363 0.0009655157454 0.7533347483 0.6531601453 0.07660666771
0.01263974082 -0.003616516817 0.0005538814238 0.7572197907 0.6531601554 0
-0.003632619348 -0.002006341739 -0.01075863508 -0.281114192 0.5872373047 -0.7590304072
0.01316896822 -0.00430206798 -0.001471167872 0.6960695813 0.7144766279 -0.07078337562
0.01098079151 -0.001779604615 -0.002115913866 0.7928459212 0.587237609 -0.1629335317
0.01464346413 -0.005808826299 -0.002465063964 0.6195015988 0.774602959 -0.127310742
0.01089152465 -0.002125318644 -0.003478357949 0.7722942832 0.5872373022 -0.2423094944
0.01370255481 -0.005594353607 -0.005022937635 0.603222362 0.774791945 -0.1892623151
0.01092560167 -0.002453900848 -0.004138613684 0.7438180846 0.5872372873 -0.319197471
0.01349715597 -0.005794867837 -0.00613886006 0.5808470682 0.7749100741 -0.2492610286
0.008300019601 0.0007401939084 -0.004820237086 0.7836636367 0.4434788867 -0.4349687134
0.01294402825 -0.005455395982 -0.006413764346 0.6117446645 0.7144767275 -0.3395459782
0.006442339685 0.005633108322 -0.004125410063 0.7861700013 0.287262081 -0.5471903014
0.009722288449 -0.002173059549 -0.00610887542 0.6643379749 0.5872374029 -0.4623930013
0.01226700929 -0.005847197956 -0.008439270923 0.5187574003 0.7749338128 -0.3610655694
0.006495323554 0.003377545869 -0.005324153089 0.7059144801 0.3666591559 -0.6060080941
0.01013631862 -0.003830749297 -0.00788677402 0.5745466415 0.6531602208 -0.493232078
0.01159804682 -0.006389657398 -0.01036493777 0.474351739 0.7710163069 -0.424881492
0.005937935795 0.002813414149 -0.006247423461 0.6409840636 0.3666593148 -0.6743147463
0.008498568711 -0.002930446251 -0.00854981387 0.5216993084 0.6531600954 -0.5488275881
0.004175789218 0.01495040712 -0.005646117999 0.6070377807 -0.1284237791 -0.7842273049
0.004991551945 0.004492726591 -0.00623721494 0.5863066983 0.2872620267 -0.7574463569
0.00724229774 -0.002632044489 -0.009320833811 0.4954475788 0.5872374815 -0.6400654943
0.008561424654 -0.005800970132 -0.01212884334 0.3815366831 0.7709694289 -0.5099371522
0.003750616282 0.007365085677 -0.006197436206 0.5176356591 0.2058475524 -0.8304698126
0.005320614571 -0.0007578657341 -0.009040041628 0.4527287563 0.5171784263 -0.7263354243
0.006469206589 -0.004317421337 -0.01160460434 0.3700947448 0.7144766439 -0.5937617411
0.002886526964 0.01465817426 -0.00636261739 0.4367471714 -0.1284238868 -0.8903702677
0.003485121848 0.004698824343 -0.007119099638 0.4218322688 0.2872620867 -0.8599639705
0.004443541322 -0.001526076979 -0.01007462452 0.3564613824 0.5872373719 -0.7266963272
0.006964657057 -0.006075279311 -0.01347875459 0.2789863901 0.7737490387 -0.5687521598
0.002603473018 0.01613093637 -0.006714934814 0.3394705058 -0.2112074943 -0.9165976053
0.002850077475 0.005555243691 -0.007123331674 0.3326669061 0.2872620853 -0.8982278241
0.004227975196 -0.001649570094 -0.01026217056 0.2811141948 0.5872373701 -0.7590303555
0.00582038909 -0.006601474199 -0.0147033504 0.2202066776 0.7732965924 -0.5945766555
-0.0005166919044 -0.004006310233 -0.01297208405 -0.03835290311 0.6531600961 -0.756247938
-0.0005691556925 0.002117727252 -0.008900230978 -0.04539618431 0.4434787844 -0.8951344895
-0.0005342421754 0.01184340871 -0.006778346975 -0.05061033721 0.03926224548 -0.9979464263
-5.367616033e-05 0.02094772567 -0.008662807429 -0.04701903101 -0.3717546217 -0.9271395321
-0.001444290101 -0.002619472326 -0.01171205087 -0.1225678953 0.5872375195 -0.8000807501
-0.0008407809408 0.00404841558 -0.008099941854 -0.1408814817 0.3666595008 -0.9196266735
-0.001060794771 0.01407869442 -0.006827125343 -0.1501738125 -0.1284237366 -0.980283209
-0.003099525736 0.01972914364 -0.007560173305 -0.3224146346 -0.3717546436 -0.8705442483
-0.00346440017 0.01723755849 -0.00658748898 -0.4304598495 -0.2112076389 -0.8775509394
-0.003485939699 0.01492808372 -0.00609708885 -0.5245836438 -0.1284236172 -0.8416171191
-0.004635602434 0.01590879312 -0.005456354415 -0.5982976507 -0.2112076861 -0.7729367597
-0.006282243179 0.01858528362 -0.004635876653 -0.7848655606 -0.2925086619 -0.5462826507
-0.002259926547 0.008163792648 -0.006724894315 -0.344668485 0.1229865575 -0.9306330867
-0.006583121538 0.01378966865 -0.001982038465 -0.9531839987 -0.04473773859 -0.299063203
-0.005436814213 0.004054269393 -0.006048921566 -0.6409840655 0.3666593159 -0.6743147439
-0.004327899174 -0.001861363084 -0.01038896639 -0.2811140998 0.5872373585 -0.7590303997
-0.006871901118 0.01443793252 -0.001091687886 -0.9714188469 -0.1284238228 -0.1996315245
-0.006257657905 0.003462825134 -0.005549232724 -0.7059144378 0.3666593115 -0.6060080493
-0.005206794261 -0.002604171356 -0.01057135976 -0.3564613942 0.5872373401 -0.726696347
-0.005252594656 -0.005469322029 -0.01346053625 -0.2429949918 0.7144766995 -0.6561070643
-0.006609084725 -0.0007417418803 -0.008131984059 -0.5238876829 0.5171782831 -0.6768074461
-0.0065855028 0.007211720324 -0.003096484251 -0.8992775609 0.2058473512 -0.3859102701
-0.007343199763 0.01681584927 0.0003714243524 -0.9724263073 -0.2112076016 0.09888592385
-0.006462962612 -0.004939327977 -0.01231804405 -0.3081259668 0.714476689 -0.6281571853
-0.0075533899 0.0005040712893 -0.006127415431 -0.649404046 0.5171783533 -0.5574952341
-0.006783029893 0.008806599771 -0.001789985711 -0.9468956423 0.122986523 -0.2970908242
-0.007715277766 0.01898329009 0.00181090593 -0.9366881921 -0.2925084256 0.1924942902
-0.009280476573 -0.004336161427 -0.009512452671 -0.4820420093 0.7144766965 -0.5071080274
-0.008522775048 0.0001465530703 -0.005121849903 -0.7483337408 0.5171784055 -0.4153590125
-0.006981431095 0.00900561637 -1.211421672e-05 -0.9924083641 0.1229863361 0
-0.006997046501 0.01900571714 0.003728148989 -0.8361054056 -0.2925085702 0.4640759497
-0.009957565774 -0.003628875887 -0.007827496887 -0.5745465192 0.6531602185 -0.4932322234
-0.008392379149 0.001878916122 -0.003347318999 -0.8236478946 0.443478812 -0.3534553566
-0.006797143741 0.01007168174 0.0009656405004 -0.9941022606 0.03926221054 0.1010899318
-0.006869332931 0.0202812893 0.004797039919 -0.7619401182 -0.371754647 0.5303260683
-0.01031625333 -0.003183426108 -0.00665554135 -0.6214983482 0.6531601578 -0.4325755558
-0.008979880665 0.001485801228 -0.002134235791 -0.8779379321 0.4434787134 -0.1804206698
-0.006574662112 0.01140399921 0.001781573409 -0.9534035174 0.03926197449 0.2991324628
-0.005915533413 0.02090218322 0.006278562759 -0.6395892068 -0.3717546581 0.6728477693
-0.01134910196 -0.003331515803 -0.004987059481 -0.6958533291 0.6531600734 -0.2986135679
-0.008696250813 0.002418557272 -0.001180424538 -0.9255818793 0.3666594348 -0.0941224925
-0.006146496521 0.01335538979 0.003042362195 -0.8734713307 -0.04473768383 0.4848158146
-0.01411696785 -0.00642807517 -0.006645177829 -0.5778667312 0.7710734578 -0.267424314
-0.01129808162 -0.002308576245 -0.002477747676 -0.7928459007 0.5872375962 -0.1629336775
-0.007769973357 0.004638908592 0.001624671041 -0.9382446231 0.2872622254 0.192814525
-0.005176274104 0.01497465398 0.004740897182 -0.7524750862 -0.1284239 0.6459787509
-0.01493462542 -0.006499283454 -0.004800138918 -0.6032223622 0.7747919453 -0.1892623134
-0.01114460273 -0.001729920029 -0.0004117141604 -0.8094146608 0.5872375216 0
-0.007058827303 0.005949288756 0.002680611807 -0.8802254749 0.2872621991 0.3777347512
-0.004504694263 0.0162028503 0.00562659516 -0.598297641 -0.2112077599 0.772936747
-0.01336267211 -0.00458520298 -0.002238770975 -0.6853372127 0.7144766725 -0.1408402974
-0.0105266514 -0.0009564992165 0.001265552051 -0.851486558 0.5171780532 0.0865881214
-0.006226983026 0.006506080523 0.004034798799 -0.8031861317 0.2058475642 0.5590338255
-0.003458144785 0.01840915688 0.006927305358 -0.4211332037 -0.2925084304 0.85853692
-0.01346685771 -0.004522253402 0.0007514301442 -0.6960695815 0.7144766277 0.07078337472
-0.008859018644 0.0008172844776 0.003580505461 -0.8236479058 0.4434787873 0.3534553614
-0.004551038224 0.008292482318 0.005411894875 -0.6074591182 0.1229863084 0.7847724433
-0.001515618113 0.01885826139 0.007738927036 -0.1448050144 -0.2925085981 0.9452355409
-0.0119838353 -0.003212924228 0.002741156252 -0.7417194982 0.6531601073 0.1524272295
-0.00738694931 0.001889625997 0.005178869461 -0.7356377487 0.4434788976 0.5120191111
-0.003059594213 0.01136593808 0.006078341239 -0.4400543229 0.03926191414 0.8971124205
0.0001061849886 0.01985290191 0.008209718716 0.04701903598 -0.3717546246 0.9271395307
-0.01100479434 -0.002693300824 0.004382722764 -0.7438181578 0.5872375335 0.3191968474
-0.005594250249 0.003749986339 0.006053280782 -0.6409840667 0.3666593182 0.6743147415
-0.001825482966 0.01445489089 0.006702962479 -0.248577126 -0.128423732 0.9600608093
-0.01507966259 -0.006488221893 0.004254212665 -0.6057994439 0.7725801566 0.1900708694
-0.009131451792 -0.001445800261 0.006022484177 -0.6643379746 0.5872374035 0.4623930011
-0.004283322865 0.005752086784 0.006286175829 -0.5066690547 0.2872619971 0.8128757679
-0.000181232306 0.01718313138 0.007417739802 -0.04950669478 -0.2112077641 0.9761866459
-0.01145851906 -0.004866399288 0.007733335718 -0.5742548636 0.7144765771 0.3996930978
-0.006167668641 0.0002836408947 0.007678686122 -0.5238877026 0.5171783029 0.6768074158
-0.001715958157 0.008028567286 0.006886767227 -0.2487500345 0.1229864825 0.9607277166
0.002084052198 0.01813417036 0.007370769597 0.2396896642 -0.2925088078 0.9257361731
-0.009816914411 -0.004326109875 0.008937578361 -0.5308720586 0.7144766611 0.4557389145
-0.005348499555 0.0003037694933 0.008255206508 -0.4527285646 0.5171782917 0.7263356396
-0.0009764830986 0.008435271623 0.00697913393 -0.1502774842 0.1229864152 0.9809643314
0.003711194641 0.01930108309 0.007107135406 0.4211325068 -0.292508425 0.8585372636
-0.01028699091 -0.00521775213 0.009786341542 -0.4820420527 0.7144766569 0.5071080418
-0.003781692928 0.0009116037115 0.008730305834 -0.3947184638 0.4434788165 0.8046886812
0.0002191425509 0.008979407682 0.00697689854 0.05026508432 0.1229863765 0.9911345885
0.003993773476 0.01891951331 0.006818186012 0.5058285665 -0.292508725 0.8115270218
-0.007579695128 -0.003429379483 0.009906857183 -0.4634987648 0.6531601442 0.5987910496
-0.002988177322 0.001306922003 0.008818864703 -0.3112847415 0.4434788741 0.8404928899
0.001118999886 0.01080306649 0.006734443024 0.1513104739 0.03926233702 0.9877062364
0.005253953404 0.02017191165 0.006471575008 0.5682368349 -0.3717544723 0.7341018402
-0.006119784637 -0.004168843405 0.01160141899 -0.3334752094 0.6531602887 0.6798352168
-0.0003384956621 0.002081761559 0.008918306692 -0.04539618411 0.443478831 0.8951344664
0.002972943134 0.01099205381 0.006137279559 0.4400543224 0.03926202525 0.8971124159
0.007403346391 0.02137757818 0.004798500505 0.761940315 -0.3717546539 0.5303257807
-0.003602095837 -0.002983511885 0.01155406169 -0.1897989923 0.6531603339 0.7330470113
0.0004816119071 0.002346169057 0.008780244622 0.04712182188 0.3666594815 0.9291611047
0.003502494084 0.01247810379 0.005840698313 0.5284349927 -0.04473793531 0.8477941823
-0.005579123281 -0.0061785556 0.0142335779 -0.2313949102 0.7709776606 0.5933378821
-0.002051317933 -0.003478368556 0.01234658958 -0.1146641155 0.6531603834 0.7484875778
0.001706034246 0.003475853481 0.008181910238 0.2331956709 0.3666592268 0.9006557558
0.004563493396 0.01377418378 0.005138066827 0.6882768131 -0.04473770642 0.7240673768
-0.004714351209 -0.006690520853 0.0152006503 -0.1716079303 0.7710014117 0.6132760727
-0.0005719102669 -0.002312102751 0.01154719184 -0.04099626829 0.5872374283 0.8083758462
0.00298085886 0.005021415089 0.007234177842 0.3326674897 0.2872620758 0.898227611
0.005103135682 0.01415291736 0.004662895991 0.7524751029 -0.1284236928 0.6459787726
-0.0004768247036 -0.005971168354 0.01502751674 -0.0320113283 0.7749495637 0.6312118888
0.002984275551 -0.001444102004 0.01051959215 0.202881345 0.5872375249 0.7835759371
0.004782149068 0.005310022556 0.00607790385 0.5863068341 0.2872620031 0.7574462607
0.006535285028 0.01595673475 0.002916837694 0.8982270397 -0.2112075843 0.3854601684
0.001008106206 -0.004834287084 0.01375396214 0.0354370153 0.7144769422 0.6987609871
0.003424607088 -0.0007746780531 0.00991385333 0.2972509905 0.5171784152 0.8026009815
0.005245250974 0.00664210234 0.005205138954 0.674211983 0.2058476648 0.7092707106
0.007316969154 0.01725419508 0.001342282478 0.9574328875 -0.211207903 0.1967574335
0.003147183981 -0.004681141801 0.01326580244 0.1753714107 0.7144766572 0.6773241282
0.005249720398 0.0004275255645 0.008228747594 0.4527285076 0.5171784151 0.7263355873
0.005930262804 0.008391335699 0.003828463314 0.8145326105 0.122986187 0.5669312342
0.008096724449 0.01955065566 -4.601075076e-05 0.9562628747 -0.2925086571 0
0.004823629958 -0.003724526413 0.01178586848 0.2629864765 0.6531603163 0.7100843009
0.005683302832 0.001466317613 0.007272577207 0.5486211802 0.4434788856 0.7087603817
0.00634998541 0.01129553649 0.002472302371 0.9182495223 0.03926196489 0.3940511552
0.008118273745 0.01970390157 -0.00073770583 0.9235680348 -0.3717546286 -0.0939179497
0.007499878706 -0.00367913062 0.01024118185 0.4634987833 0.6531601352 0.5987910451
0.00719950836 0.002773980202 0.004758137198 0.7636015227 0.3666593322 0.5314825008
0.006753364124 0.01218551252 0.0008091456724 0.9938732007 -0.0447375299 0.1010673757
0.007310676679 -0.005855308568 0.01298845765 0.3159018273 0.7711291606 0.5527801128
0.008153145236 -0.002497338309 0.008388744565 0.5576598467 0.5872374633 0.586658041
0.007245826912 0.004728599372 0.003173508116 0.8802254036 0.2872621947 0.3777349207
0.007010287997 0.01533493563 -0.0009132842494 0.9866311981 -0.1284238071 -0.1003304775
0.009206877646 -0.006163275319 0.0121779577 0.3879835545 0.7734556677 0.5012335698
0.00905666075 -0.001120027994 0.005716419251 0.6643379502 0.5872374353 0.4623929958
0.007569458484 0.005357692834 0.001530222776 0.9382446763 0.287262224 0.1928142685
0.007019344641 0.01734858446 -0.00254946463 0.9326152134 -0.211207582 -0.2926093318
0.0112695642 -0.005047862305 0.008329399002 0.5742547663 0.7144766629 0.3996930843
0.009283965619 0.0003718202823 0.003136090709 0.8166265936 0.5171782878 0.2562179255
0.007060816301 0.00815020117 -0.0006284113993 0.9873166725 0.1229863099 -0.1003999787
0.006302341271 0.0190926176 -0.004878862964 0.7848654377 -0.2925086619 -0.5462828273
0.01122119863 -0.003957012142 0.00642783819 0.6620726013 0.6531600995 0.3674802784
0.009275758127 0.001207689674 0.001319942241 0.8916862227 0.4434789833 0.09067563936
0.006392778684 0.01143521098 -0.002369087455 0.9534034963 0.03926195935 -0.2991325322
0.005516436687 0.02075000394 -0.006572589708 0.5682369399 -0.3717544646 -0.7341017628
0.01187871041 -0.003738618275 0.004632283718 0.6958528822 0.6531603388 0.2986140286
0.009178245221 0.001579634479 2.408442776e-05 0.8962848087 0.4434789078 0
0.006092340002 0.01058834084 -0.003124517369 0.8736722992 0.03926216727 -0.4849280315
0.004429276876 0.02139580778 -0.007647609452 0.4910535395 -0.3717545214 -0.7878229478
0.01213470375 -0.003782429825 0.004018335762 0.7224931817 0.6531601024 0.2266836629
0.00887718186 0.002123400073 -0.0007723170641 0.891686258 0.4434789113 -0.09067564433
0.005791887997 0.01100744421 -0.003629473378 0.8201306824 0.0392622741 -0.5708275901
0.003997790685 0.02115007534 -0.007768165339 0.4088318875 -0.3717544624 -0.8334597215
0.003370838863 -0.002694316338 -0.01136789611 0.2028818095 0.587237526 -0.783575816
0.001906944241 0.004414360425 -0.007782547512 0.2400877608 0.2872622602 -0.9272746416
0.001974611185 0.01410225383 -0.006628659349 0.248577126 -0.128423732 -0.9600608093
0.001835834082 -0.004647361971 -0.01348537181 0.105947919 0.7144769437 -0.6915907282
0.001404173212 -0.001067682876 -0.01058359319 0.1296040426 0.5171782416 -0.8460079542
0.0009115075535 0.006511868785 -0.007370575781 0.1481853546 0.20584763 -0.9672992577
0.0009905371958 0.01729261097 -0.007387634337 0.1480118787 -0.2112076308 -0.9661696644
0.001026240097 -0.004240159579 -0.01315699293 0.03543746933 0.7144769608 -0.698760945
0.000823014495 0.0003783040604 -0.009771325012 0.04334949244 0.5171782894 -0.8547791753
0.0001540063864 0.009618739851 -0.006912309302 0.05026508413 0.122986407 -0.9911345847
0.0007913505438 0.0187433596 -0.00782538873 0.04843373375 -0.2925086389 -0.9550355332
-0.004880685289 0.02309855251 -0.008365088734 -0.4872860383 -0.4496079423 -0.7486020406
-0.006713184396 0.0228414261 -0.006808582316 -0.6641837597 -0.4416075173 -0.6031937782
-0.002595575142 0.01671086016 -0.006851435613 -0.339470482 -0.211207722 -0.9165975617
-0.005685943346 0.01667126377 -0.004608615192 -0.7416417648 -0.2112077493 -0.6366779243
-0.002696853706 0.005729250551 -0.007124376686 -0.3326668717 0.2872623509 -0.8982277519
-0.005894456515 0.01593454431 -0.00405863878 -0.802247633 -0.2112075967 -0.5583816674
-0.00313861853 0.005721531723 -0.00694737107 -0.4218324643 0.2872620761 -0.8599638781
-0.006804998013 0.01773262508 -0.003272511699 -0.8982272047 -0.2112077607 -0.3854596874
-0.004318605841 0.007328718128 -0.005826115443 -0.5989970018 0.2058475336 -0.7738406714
-0.008644356864 0.02104926377 -0.0008882273262 -0.9235681111 -0.3717546104 -0.09391727093
-0.00541834492 0.01127171718 -0.004147769774 -0.8201306902 0.03926208814 -0.5708275917
-0.003840606101 0.0006712384468 -0.00884531803 -0.3947184639 0.4434788171 -0.8046886808
-0.004739879097 0.002351628554 -0.007417143555 -0.4921246261 0.3666593507 -0.7895405455
-0.006341503783 0.01343211003 -0.002615715625 -0.9180376993 -0.04473767829 -0.3939610676
-0.008913012797 0.021581909 -0.0002074455662 -0.9004156877 -0.4350305614 0
-0.008274013089 0.0214719653 0.003180715025 -0.824245636 -0.4421619483 0.3537116665
-0.00847735724 -0.004128567357 -0.009986129451 -0.4634987625 0.6531601434 -0.5987910522
-0.007957939041 0.001707670027 -0.004449880792 -0.7836635524 0.4434788729 -0.4349688792
-0.006809744544 0.01136444294 -0.0001223532903 -0.9992289523 0.03926195112 0
-0.007585989879 0.02060393868 0.003864403031 -0.8116832278 -0.3717545527 0.450520688
-0.005884584932 0.02224748447 0.007133097142 -0.5344027742 -0.4490932737 0.7160509105
-0.01256532955 -0.00498793617 -0.006098963946 -0.6429572861 0.7144767221 -0.2759147363
-0.008858916544 0.002213897564 -0.0005078882329 -0.8916862725 0.4434789185 -0.0906754664
-0.006529168893 0.008693658945 0.002580943001 -0.9119816786 0.1229864625 0.3913614033
-0.004836998656 0.02015400851 0.006785142898 -0.568236824 -0.3717545237 0.7341018226
-0.002187654662 0.02193861653 0.008820489822 -0.2243302211 -0.4460971724 0.8664140261
-0.01231065816 -0.003299414262 0.001166332904 -0.7533347149 0.6531601661 0.07660681894
-0.008002021579 0.002605145619 0.003400913305 -0.8549571181 0.3666594684 0.3668912107
-0.004197843876 0.01271350366 0.005375270381 -0.6114930414 -0.04473791953 0.7899840371
-0.001123374703 0.02200037579 0.009046100525 -0.1361225354 -0.4380988044 0.8885606861
0.002683191166 0.02165442042 0.008545446202 0.2245273421 -0.4445158198 0.8671753909
-0.01161949533 -0.004147872377 0.00604921706 -0.6620725501 0.6531601663 0.3674802519
-0.005426487443 0.002641055031 0.006773989518 -0.5694758734 0.3666593339 0.7357024959
-0.001156678547 0.01069076163 0.00673311339 -0.151310938 0.03926233658 0.9877061653
0.002477634482 0.01983714091 0.00782522887 0.322414123 -0.371754402 0.870544541
0.006515243854 0.02188759371 0.00630870287 0.6177496289 -0.4427765558 0.6498725396
-0.006942233819 -0.004565508229 0.01159675682 -0.3700946803 0.7144766332 0.5937617942
-0.001908544926 0.001568868896 0.008986433098 -0.2246559072 0.4434789319 0.8676728417
0.001785694627 0.009333798654 0.006701661018 0.248749439 0.1229864797 0.9607278712
0.006351533278 0.02121467671 0.006036909046 0.6395894897 -0.3717546479 0.6728475061
0.008375048617 0.02166132428 0.003186533356 0.8215963608 -0.447962567 0.3525747558
-0.001015722173 -0.005110013245 0.01403549557 -0.03543746622 0.7144769604 0.6987609456
0.002252784016 0.0005232357643 0.009438284989 0.2145277874 0.5171781798 0.8285557065
0.004493086359 0.008535506863 0.005418779725 0.6074589484 0.1229863102 0.7847725744
0.007645833941 0.01919053916 0.002303762584 0.9124080421 -0.2925086574 0.286269541
0.009011494813 0.02180260135 -0.0005954745331 0.8916758304 -0.4444265072 -0.08601914414
0.004884675907 -0.004829528144 0.01288869824 0.2429949899 0.7144767007 0.6561070636
0.006392898485 -0.0009299255661 0.00843179678 0.5238876821 0.5171782837 0.6768074463
0.006601531609 0.007442610161 0.002924872105 0.8992775605 0.2058473519 0.3859102704
0.007661089644 0.01832976683 -0.001008857462 0.9513566662 -0.2925084885 -0.09674336062
0.008102119776 0.02284247435 -0.005068792098 0.7342781019 -0.4455174301 -0.5122010236
0.0101000313 -0.004075935547 0.008242289398 0.5745465207 0.6531602165 0.4932322243
0.008599995663 0.00159893872 0.003203701606 0.8236478976 0.4434788093 0.3534553529
0.006828744634 0.01032842374 -0.0005680324408 0.9941022605 0.03926221186 -0.1010899318
0.006889368364 0.01969797546 -0.004371002497 0.7619401216 -0.371754645 -0.5303260648
0.004049332185 0.02265391496 -0.008541020783 0.3881786396 -0.4467455036 -0.8060619075
0.01338397868 -0.004882460701 0.0035757534 0.6675723182 0.7144767022 0.2094522427
0.01006213473 -0.0001164536045 -0.0008289061116 0.8514864627 0.5171783047 -0.086587557
0.006037534704 0.008919668697 -0.003536142749 0.8677087687 0.1229861789 -0.4816179943
0.003868157687 0.01794717473 -0.006557451644 0.5058281323 -0.2925087149 -0.8115272961
0.000453082737 0.02244832798 -0.009343968901 0.05743424367 -0.4431856782 -0.8945880405
-0.002428149302 0.02097904198 -0.008323858238 -0.2326879814 -0.3717544128 -0.8986962556
-0.001810998915 0.01017388973 -0.006619498857 -0.2504590102 0.039262414 -0.967330733
-0.002073585101 0.001059653028 -0.009215409437 -0.2246557381 0.4434789497 -0.8676728764
-0.003281187022 -0.004042571994 -0.01259223652 -0.1897990534 0.6531603279 -0.7330470008
0.009589141139 -0.006873023215 -0.01297362416 0.4001713775 0.7441812909 -0.5348430376
-0.009263145499 -0.006881450098 0.01321915688 -0.3870149271 0.7443593181 0.5441954168
-0.001951856277 -0.01456751622 0.01506470851 -0.03900317162 -0.9147055844 0.4022343179
-0.01301957568 -0.01395907027 -0.009618213412 -0.5408219195 -0.7326172123 -0.4132598114
-0.003860265441 -0.01341329893 0.01629609146 -0.1522551894 -0.6099079732 0.7777085711
-0.0102060409 -0.01483964083 -0.0101927429 -0.1809051966 -0.969003333 -0.1682434264
-0.003920375725 -0.01491083888 0.0135720523 -0.07064226972 -0.9690033688 0.2367322135
0.0139376341 -0.01484892667 -0.003533243969 0.2383702418 -0.9690033192 -0.06490142732
-0.009138198469 -0.01482399704 -0.01124497913 -0.1638227822 -0.9690033548 -0.1849178043
-0.01136172378 -0.01218312187 -0.01332353915 -0.6286863115 -0.3180638863 -0.7096399693
-0.006990892012 -0.01256976204 0.01583611906 -0.3327609919 -0.4704400909 0.8172859005
0.01653914721 -0.01331107518 -0.003067436857 0.7811614881 -0.6099066761 -0.1334187994
-0.009076618796 -0.01369798794 -0.01375987031 -0.400070598 -0.7326172998 -0.5506499875
-0.007351183956 -0.01465079566 0.01307642631 -0.187804316 -0.9147056591 0.3578311
-0.008392908608 -0.01139388578 0.0156287474 -0.4589616963 -0.1569713949 0.8744793551
0.01719773909 -0.01277008851 -0.0006860315877 0.8801143325 -0.4704393259 -0.06391871739
-0.007843626349 -0.01366837222 -0.01452818426 -0.3450573265 -0.7326176495 -0.5866914189
-0.007042926684 -0.01495358682 0.01183517551 -0.04554887846 -0.9965398367 0.06952448154
-0.009688175572 -0.01223762976 0.0145497625 -0.519553917 -0.318065474 0.7930309462
0.01636284393 -0.01377844689 0.0007346468515 0.6804419772 -0.7326173771 0.01644671542
-0.006248372976 -0.01495213912 -0.01229900278 -0.03502536565 -0.9965398388 -0.07537621243
-0.007904928482 -0.01227546698 -0.01559143492 -0.3718579138 -0.4704394079 -0.800255244
-0.009189406267 -0.01444588822 0.01244748654 -0.2530547428 -0.9147054774 0.3150828253
-0.011311696 -0.01082261706 0.01378411838 -0.618422515 -0.1569711119 0.770008872
0.01656396631 -0.01352705157 0.0016813333 0.6756780862 -0.732617388 0.08204198043
0.0176766397 -0.009979619433 0.002311527667 0.9776393121 0.1735802999 0.1187065919
-0.005500667085 -0.01276833145 -0.01630676504 -0.2928863176 -0.4704387507 -0.8324091463
-0.009990940483 -0.01493152807 0.009845956872 -0.05805784786 -0.9965398328 0.05947812949
-0.01251317905 -0.01203641979 0.01230754986 -0.6622371097 -0.3180637056 0.6784375356
0.01417176703 -0.01485131509 0.002438972504 0.2412273967 -0.9690033444 0.05330911414
0.01730930574 -0.01163195204 0.003638010057 0.9257333412 -0.3180652646 0.2045782699
-0.003645899747 -0.01454565647 -0.01480104963 -0.09671231871 -0.9147056749 -0.3923776951
-0.004548393676 -0.01114468665 -0.01720050619 -0.2363490203 -0.1569727985 -0.9589049385
-0.01174765 -0.01466284004 0.009289164238 -0.3088758586 -0.9147055784 0.2605943377
-0.01359901899 -0.01119332565 0.01144192638 -0.7548404976 -0.156971889 0.6368482152
0.01421292808 -0.01471503272 0.004321998742 0.3843419847 -0.9147055212 0.1248801358
0.01709373032 -0.01150238363 0.00475055033 0.9392661242 -0.1569725551 0.3051864427
-0.002575684432 -0.01483031428 -0.01423054386 -0.03569568272 -0.969003359 -0.2444551255
-0.001889013412 -0.01159830241 -0.01761656322 -0.1369859132 -0.3180631105 -0.9381208437
-0.01131021502 -0.01497666373 0.007351428558 -0.06840361582 -0.996539829 0.04721561779
-0.01386724278 -0.01245408309 0.01048192241 -0.7262272419 -0.4704396528 0.5012788906
-0.01444023867 -0.007951995295 0.009191852904 -0.7196025286 0.4852381065 0.496705326
0.01575350874 -0.01307501517 0.00639822868 0.7265333046 -0.6099068616 0.3164853511
0.01642107067 -0.009279362717 0.006626161666 0.8641482024 0.3339866097 0.3764317053
-0.001189903499 -0.01456036759 -0.01517058236 -0.01952427623 -0.9147056924 -0.4036487321
-0.001140013082 -0.01101146126 -0.01777622186 -0.04771472044 -0.1569715405 -0.9864498167
-0.000233027393 -0.006847223016 -0.01610305604 -0.03228262385 0.7439887983 -0.6674117921
-0.00718051335 -0.009446927247 -0.01622318269 -0.4150039639 0.1735789511 -0.8931080884
-0.01245664543 -0.01148875392 -0.01264463917 -0.7231905443 -0.1569731084 -0.6725733267
-0.004499179179 -0.00703730179 -0.01568606133 -0.1599087543 0.7439882039 -0.6487763426
-0.008776896336 -0.008531230684 -0.0150652258 -0.4432764689 0.4852390031 -0.7536903091
-0.01042533388 -0.008725904647 -0.01407115225 -0.5540332269 0.3339858998 -0.7625618679
-0.01078881678 -0.008130075998 -0.0134369636 -0.5798221247 0.4852393879 -0.6544837968
-0.0102491963 -0.007657069991 -0.01342936597 -0.4596964502 0.6231746184 -0.6327183961
-0.01232547918 -0.007067829005 -0.01073941221 -0.4892971989 0.7439876006 -0.4550502184
-0.01502072733 -0.01039436049 -0.00963067372 -0.8494377384 0.008418338509 -0.5276217018
-0.01386416411 -0.01409503393 -0.008014354982 -0.4672019161 -0.8351689534 -0.2901985336
-0.01552018398 -0.007858912885 -0.007073503432 -0.7010799554 0.6231748986 -0.3466120912
-0.01563085347 -0.01192824628 -0.008075186281 -0.8498748567 -0.3180641542 -0.4201760604
-0.01273334951 -0.01491392764 -0.006109585773 -0.2214600961 -0.9690033433 -0.1094894816
-0.01691785117 -0.01063675635 -0.005707018 -0.9349832139 0.008420278064 -0.354592003
-0.01522933917 -0.01402712393 -0.005268695141 -0.5142526027 -0.8351690751 -0.1950304505
-0.01680532538 -0.008433873492 -0.004426083102 -0.8436695424 0.4852388245 -0.2297063047
