# .PCD v0.7 - Point Cloud Data file format
VERSION 0.7
FIELDS x y z rgb
SIZE 4 4 4 4
TYPE F F F F
COUNT 1 1 1 1
WIDTH 796
HEIGHT 1
VIEWPOINT 0 0 0 1 0 0 0
POINTS 796
DATA ascii
-0.001823697162 0.006080057171 0.0009999990463 4.725696902e-39
-0.001499196944 0.006100256437 0.001999986172 4.817892532e-39
-0.00116863801 0.006100256437 0.001999986172 4.725696902e-39
-0.0008380790757 0.006100256437 0.001999986172 5.002283792e-39
-0.0005075201413 0.006100256437 0.001999986172 5.279590949e-39
-0.0001769612069 0.006100256437 0.001999986172 4.72641717e-39
0.0001535977275 0.006100256437 0.001999986172 4.266157886e-39
0.0004841566619 0.006100256437 0.001999986172 4.727136036e-39
0.0008147155963 0.006100256437 0.001999986172 4.634943208e-39
0.001145274531 0.006100256437 0.001999986172 3.897378169e-39
0.001475833465 0.006100256437 0.001999986172 4.634943208e-39
0.0018063924 0.006100256437 0.001999986172 4.911530098e-39
0.002136951334 0.006100256437 0.001999986172 4.265441823e-39
0.002467510268 0.006100256437 0.001999986172 4.634224342e-39
0.002798069203 0.006100256437 0.001999986172 4.818615602e-39
0.003128628137 0.006100256437 0.001999986172 4.818615602e-39
0.003459187072 0.006100256437 0.001999986172 4.63422154e-39
0.003789746006 0.006100256437 0.001999986172 4.54202591e-39
0.004133948566 0.006120456304 0.003000003099 4.081047761e-39
0.004465602085 0.006120456304 0.003000003099 3.988852131e-39
0.004797255604 0.006120456304 0.003000003099 4.17324339e-39
0.005128909123 0.006120456304 0.003000003099 4.17324339e-39
0.005460562642 0.006120456304 0.003000003099 4.26543902e-39
0.005811332139 0.00614065557 0.003999990225 4.081047761e-39
0.00614408021 0.00614065557 0.003999990225 4.172879053e-39
0.006476828281 0.00614065557 0.003999990225 4.910444092e-39
0.006809576352 0.00614065557 0.003999990225 5.185949179e-39
0.007142324423 0.00614065557 0.003999990225 5.093753549e-39
0.007475072494 0.00614065557 0.003999990225 6.197220038e-39
0.007782137275 0.006120456304 0.003000003099 6.381611297e-39
0.008113790794 0.006120456304 0.003000003099 8.766464338e-39
0.008445444313 0.006120456304 0.003000003099 9.043051228e-39
0.008748130022 0.006100256437 0.001999986172 1.14304168e-38
0.009078688956 0.006100256437 0.001999986172 1.189139495e-38
0.009409247891 0.006100256437 0.001999986172 1.234985216e-38
0.009739806825 0.006100256437 0.001999986172 1.253424342e-38
0.01007036576 0.006100256437 0.001999986172 1.271683401e-38
0.01036648499 0.006080057171 0.0009999990463 1.271683401e-38
0.01069594937 0.006080057171 0.0009999990463 1.327036372e-38
0.01102541375 0.006080057171 0.0009999990463 1.345475498e-38
0.01135487814 0.006080057171 0.0009999990463 1.354623034e-38
0.01557092642 0.006766841228 0.03500000834 1.354623034e-38
0.01593760606 0.006766841228 0.03500000834 1.354623034e-38
0.0163042857 0.006766841228 0.03500000834 1.308489626e-38
0.01667096533 0.006766841228 0.03500000834 1.373026567e-38
0.01703764497 0.006766841228 0.03500000834 1.363807004e-38
0.01740432461 0.006766841228 0.03500000834 1.345367878e-38
0.01777100425 0.006766841228 0.03500000834 1.345367878e-38
0.01813768389 0.006766841228 0.03500000834 1.345367878e-38
0.01850436353 0.006766841228 0.03500000834 1.345367878e-38
0.01887104317 0.006766841228 0.03500000834 1.373026567e-38
0.0192377228 0.006766841228 0.03500000834 1.373026567e-38
0.01960440244 0.006766841228 0.03500000834 1.354587441e-38
0.01997108208 0.006766841228 0.03500000834 1.372918667e-38
0.02033776172 0.006766841228 0.03500000834 1.38213823e-38
0.02070444136 0.006766841228 0.03500000834 1.391357793e-38
0.021071121 0.006766841228 0.03500000834 1.372918667e-38
0.02143780064 0.006766841228 0.03500000834 1.38213823e-38
0.02180448027 0.006766841228 0.03500000834 1.391357793e-38
0.02217115991 0.006766841228 0.03500000834 1.391357793e-38
0.02253783955 0.006766841228 0.03500000834 1.38213823e-38
0.02290451919 0.006766841228 0.03500000834 1.363699104e-38
0.02327119883 0.006766841228 0.03500000834 1.363699104e-38
0.02363787847 0.006766841228 0.03500000834 1.38224613e-38
0.02400455811 0.006766841228 0.03500000834 1.354587441e-38
0.02437123774 0.006766841228 0.03500000834 1.345367878e-38
0.02473791738 0.006766841228 0.03500000834 1.354587441e-38
0.02510459702 0.006766841228 0.03500000834 1.437455608e-38
-0.02944251639 0.00711215494 0.03399999142 1.317601289e-38
-0.02907693133 0.00711215494 0.03399999142 1.308381726e-38
-0.02871134628 0.00711215494 0.03399999142 1.299162163e-38
-0.02843063021 0.007133449178 0.03500000834 1.299162163e-38
-0.02806395057 0.007133449178 0.03500000834 1.2899426e-38
-0.02769727094 0.007133449178 0.03500000834 1.299162163e-38
-0.02279353724 0.007090861337 0.03300000429 1.308381726e-38
-0.02242904673 0.007090861337 0.03300000429 1.308381726e-38
-0.01166873336 0.006388163538 1.192092897e-08 1.197926897e-38
-0.01134036353 0.006388163538 1.192092897e-08 1.170268208e-38
-0.0110119937 0.006388163538 1.192092897e-08 1.179559938e-38
-0.01064801119 0.0063668693 -0.001000005007 1.188779501e-38
-0.01032073594 0.0063668693 -0.001000005007 1.161228712e-38
-0.009993460696 0.0063668693 -0.001000005007 1.188887401e-38
-0.00966618545 0.0063668693 -0.001000005007 1.096943584e-38
-0.009338910204 0.0063668693 -0.001000005007 1.096943584e-38
-0.009011634958 0.0063668693 -0.001000005007 1.023582947e-38
-0.008684359712 0.0063668693 -0.001000005007 9.406068805e-39
-0.008357084466 0.0063668693 -0.001000005007 7.66047271e-39
-0.00802980922 0.0063668693 -0.001000005007 7.56827708e-39
-0.007702533974 0.0063668693 -0.001000005007 6.191822236e-39
-0.007375258729 0.0063668693 -0.001000005007 5.823039717e-39
-0.007047983483 0.0063668693 -0.001000005007 4.814649927e-39
-0.006720708237 0.0063668693 -0.001000005007 4.906845557e-39
-0.006393432991 0.0063668693 -0.001000005007 4.540582572e-39
-0.006066157745 0.0063668693 -0.001000005007 4.540582572e-39
-0.005758076411 0.006388163538 1.192092897e-08 4.449465942e-39
-0.005429706581 0.006388163538 1.192092897e-08 4.541661572e-39
-0.00510133675 0.006388163538 1.192092897e-08 4.08140369e-39
-0.00477296692 0.006388163538 1.192092897e-08 4.54238184e-39
-0.00444459709 0.006388163538 1.192092897e-08 4.35799058e-39
-0.004116227259 0.006388163538 1.192092897e-08 4.35799058e-39
-0.003800483457 0.006409457141 0.0009999990463 4.35799058e-39
-0.003471019074 0.006409457141 0.0009999990463 4.54238184e-39
-0.003151991616 0.006430750745 0.001999986172 4.172523123e-39
-0.002821432682 0.006430750745 0.001999986172 4.541305642e-39
-0.002490873748 0.006430750745 0.001999986172 4.725696902e-39
-0.002167468295 0.006452044983 0.003000003099 4.910088162e-39
-0.001835814776 0.006452044983 0.003000003099 4.725696902e-39
-0.001504161257 0.006452044983 0.003000003099 4.817892532e-39
-0.001172507738 0.006452044983 0.003000003099 4.081047761e-39
-0.0008408542191 0.006452044983 0.003000003099 4.081047761e-39
-0.0005092007001 0.006452044983 0.003000003099 5.003004059e-39
-0.0001781331378 0.006473338586 0.003999990225 4.54202591e-39
0.0001546149331 0.006473338586 0.003999990225 4.450549146e-39
0.0004873630041 0.006473338586 0.003999990225 4.542744776e-39
0.0008174133759 0.006452044983 0.003000003099 4.819334468e-39
0.001149066895 0.006452044983 0.003000003099 3.989573799e-39
0.001480720414 0.006452044983 0.003000003099 4.081769429e-39
0.001812373933 0.006452044983 0.003000003099 4.727138838e-39
0.002144027452 0.006452044983 0.003000003099 4.450551949e-39
0.002475680971 0.006452044983 0.003000003099 4.450551949e-39
0.00280733449 0.006452044983 0.003000003099 4.910811232e-39
0.003138988009 0.006452044983 0.003000003099 4.265441823e-39
0.003470641528 0.006452044983 0.003000003099 4.173246193e-39
0.003802295047 0.006452044983 0.003000003099 4.542028712e-39
0.004133948566 0.006452044983 0.003000003099 4.818615602e-39
0.004465602085 0.006452044983 0.003000003099 4.357637453e-39
0.004813087926 0.006473338586 0.003999990225 4.265441823e-39
0.005145835997 0.006473338586 0.003999990225 4.265441823e-39
0.005478584068 0.006473338586 0.003999990225 4.26543902e-39
0.005811332139 0.006473338586 0.003999990225 4.081047761e-39
0.00614408021 0.006473338586 0.003999990225 4.265074683e-39
0.006476828281 0.006473338586 0.003999990225 4.910444092e-39
0.006809576352 0.006473338586 0.003999990225 4.909362289e-39
0.007142324423 0.006473338586 0.003999990225 5.093753549e-39
0.007475072494 0.006473338586 0.003999990225 7.114498802e-39
0.007807820565 0.006473338586 0.003999990225 7.298890062e-39
0.008140568636 0.006473338586 0.003999990225 9.868849025e-39
0.008445444313 0.006452044983 0.003000003099 1.023763154e-38
0.008777097832 0.006452044983 0.003000003099 1.179847625e-38
0.009108751351 0.006452044983 0.003000003099 1.207506314e-38
0.009409247891 0.006430750745 0.001999986172 1.280974851e-38
0.009739806825 0.006430750745 0.001999986172 1.262535725e-38
0.01007036576 0.006430750745 0.001999986172 1.271718994e-38
0.01036648499 0.006409457141 0.0009999990463 1.280938557e-38
0.01069594937 0.006409457141 0.0009999990463 1.317816809e-38
0.0156174062 0.007154742782 0.03599999547 1.336183908e-38
0.01598518039 0.007154742782 0.03599999547 1.363842597e-38
0.01635295458 0.007154742782 0.03599999547 1.37306216e-38
0.01672072877 0.007154742782 0.03599999547 1.354623034e-38
0.01708850296 0.007154742782 0.03599999547 1.363842597e-38
0.01745627715 0.007154742782 0.03599999547 1.336183908e-38
0.01782405134 0.007154742782 0.03599999547 1.317709189e-38
0.01813768389 0.007133449178 0.03500000834 1.336148315e-38
0.01850436353 0.007133449178 0.03500000834 1.336148315e-38
0.01887104317 0.007133449178 0.03500000834 1.345367878e-38
0.0192377228 0.007133449178 0.03500000834 1.363807004e-38
0.01960440244 0.007133449178 0.03500000834 1.354587441e-38
0.01997108208 0.007133449178 0.03500000834 1.354587441e-38
0.02033776172 0.007133449178 0.03500000834 1.363807004e-38
0.02070444136 0.007133449178 0.03500000834 1.391357793e-38
0.021071121 0.007133449178 0.03500000834 1.38213823e-38
0.02143780064 0.007133449178 0.03500000834 1.372918667e-38
0.02180448027 0.007133449178 0.03500000834 1.391357793e-38
0.02217115991 0.007133449178 0.03500000834 1.391357793e-38
0.02253783955 0.007133449178 0.03500000834 1.391357793e-38
0.02290451919 0.007133449178 0.03500000834 1.372918667e-38
0.02327119883 0.007133449178 0.03500000834 1.372918667e-38
0.02370843839 0.007154742782 0.03599999547 1.363699104e-38
0.02407621258 0.007154742782 0.03599999547 1.372918667e-38
0.02444398677 0.007154742782 0.03599999547 1.372918667e-38
0.02481176096 0.007154742782 0.03599999547 1.363699104e-38
0.02517953515 0.007154742782 0.03599999547 1.363699104e-38
-0.02953066913 0.007500057129 0.03500000834 1.299162444e-38
-0.02916398949 0.007500057129 0.03500000834 1.299162163e-38
-0.02879730985 0.007500057129 0.03500000834 1.2899426e-38
-0.02843063021 0.007500057129 0.03500000834 1.271503474e-38
-0.02513051347 0.007500057129 0.03500000834 1.299162163e-38
-0.02468991069 0.00747766852 0.03399999142 1.299162163e-38
-0.02432432563 0.00747766852 0.03399999142 1.2899426e-38
-0.02395874058 0.00747766852 0.03399999142 1.2899426e-38
-0.02359315552 0.00747766852 0.03399999142 1.253064348e-38
-0.02322757047 0.00747766852 0.03399999142 1.253064348e-38
-0.02279353724 0.007455280579 0.03300000429 1.308381726e-38
-0.02242904673 0.007455280579 0.03300000429 1.308381726e-38
-0.02213081531 0.00747766852 0.03399999142 1.299162163e-38
-0.02176523025 0.00747766852 0.03399999142 1.308381726e-38
-0.0213996452 0.00747766852 0.03399999142 1.299162163e-38
-0.01166873336 0.00671646917 1.192092897e-08 1.188707334e-38
-0.01134036353 0.00671646917 1.192092897e-08 1.170268208e-38
-0.0110119937 0.00671646917 1.192092897e-08 1.170268208e-38
-0.01064801119 0.006694080561 -0.001000005007 1.197926897e-38
-0.01032073594 0.006694080561 -0.001000005007 1.197998784e-38
-0.009993460696 0.006694080561 -0.001000005007 1.188779221e-38
-0.00966618545 0.006694080561 -0.001000005007 1.161228712e-38
-0.009338910204 0.006694080561 -0.001000005007 1.142789586e-38
-0.009011634958 0.006694080561 -0.001000005007 1.106091401e-38
-0.008684359712 0.006694080561 -0.001000005007 1.115310964e-38
-0.008357084466 0.006694080561 -0.001000005007 9.958882451e-39
-0.00802980922 0.006694080561 -0.001000005007 9.405708672e-39
-0.007702533974 0.006694080561 -0.001000005007 7.75158934e-39
-0.007375258729 0.006694080561 -0.001000005007 7.198415561e-39
-0.007047983483 0.006694080561 -0.001000005007 6.190021567e-39
-0.006720708237 0.006694080561 -0.001000005007 6.282217197e-39
-0.006393432991 0.006694080561 -0.001000005007 5.275263739e-39
-0.006066157745 0.006694080561 -0.001000005007 5.183068109e-39
-0.005758076411 0.00671646917 1.192092897e-08 4.72497103e-39
-0.005429706581 0.00671646917 1.192092897e-08 5.093753549e-39
-0.00510133675 0.00671646917 1.192092897e-08 4.35726751e-39
-0.00477296692 0.00671646917 1.192092897e-08 4.35726751e-39
-0.00444459709 0.00671646917 1.192092897e-08 4.173596518e-39
-0.004116227259 0.00671646917 1.192092897e-08 4.173596518e-39
-0.003800483457 0.006738857111 0.0009999990463 4.26579495e-39
-0.003471019074 0.006738857111 0.0009999990463 4.54238184e-39
-0.003151991616 0.006761245053 0.001999986172 4.54238184e-39
-0.002821432682 0.006761245053 0.001999986172 4.35799058e-39
-0.002490873748 0.006761245053 0.001999986172 4.35763465e-39
-0.002167468295 0.006783633662 0.003000003099 4.35763465e-39
-0.001835814776 0.006783633662 0.003000003099 4.54202591e-39
-0.001504161257 0.006783633662 0.003000003099 5.187395319e-39
-0.001172507738 0.006783633662 0.003000003099 4.17324339e-39
-0.0008408542191 0.006783633662 0.003000003099 3.896656501e-39
-0.0005092007001 0.006783633662 0.003000003099 4.542744776e-39
-0.0001781331378 0.006806021603 0.003999990225 4.450549146e-39
0.0001546149331 0.006806021603 0.003999990225 4.266157886e-39
0.0004873630041 0.006806021603 0.003999990225 3.897375367e-39
0.0008174133759 0.006783633662 0.003000003099 4.634940406e-39
0.001149066895 0.006783633662 0.003000003099 4.450549146e-39
0.001480720414 0.006783633662 0.003000003099 4.173962256e-39
0.001812373933 0.006783633662 0.003000003099 4.450549146e-39
0.002144027452 0.006783633662 0.003000003099 4.450549146e-39
0.002475680971 0.006783633662 0.003000003099 3.805179737e-39
0.00280733449 0.006783633662 0.003000003099 3.896656501e-39
0.003138988009 0.006783633662 0.003000003099 4.17324339e-39
0.003470641528 0.006783633662 0.003000003099 3.527873981e-39
0.003802295047 0.006783633662 0.003000003099 4.081047761e-39
0.004133948566 0.006783633662 0.003000003099 4.54202591e-39
0.004465602085 0.006783633662 0.003000003099 4.17324339e-39
0.004813087926 0.006806021603 0.003999990225 4.081047761e-39
0.005145835997 0.006806021603 0.003999990225 4.54202591e-39
0.005478584068 0.006806021603 0.003999990225 4.54202591e-39
0.005811332139 0.006806021603 0.003999990225 4.35763465e-39
0.00614408021 0.006806021603 0.003999990225 4.818248462e-39
0.006476828281 0.006806021603 0.003999990225 4.818248462e-39
0.006809576352 0.006806021603 0.003999990225 5.275984006e-39
0.007142324423 0.006806021603 0.003999990225 5.368179636e-39
0.007475072494 0.006806021603 0.003999990225 6.924349607e-39
0.007807820565 0.006806021603 0.003999990225 8.122892795e-39
0.008140568636 0.006806021603 0.003999990225 1.097195538e-38
0.008445444313 0.006783633662 0.003000003099 1.115634664e-38
0.008777097832 0.006783633662 0.003000003099 1.152081036e-38
0.009108751351 0.006783633662 0.003000003099 1.216617977e-38
0.009409247891 0.006761245053 0.001999986172 1.290122527e-38
0.009739806825 0.006761245053 0.001999986172 1.280902964e-38
0.01007036576 0.006761245053 0.001999986172 1.253244275e-38
0.01036648499 0.006738857111 0.0009999990463 1.280902964e-38
0.01069594937 0.006738857111 0.0009999990463 1.317744782e-38
0.01492614981 0.007544833679 0.0370000124 1.308525219e-38
0.01529501858 0.007544833679 0.0370000124 1.354623034e-38
0.0156174062 0.00752244507 0.03599999547 1.345403471e-38
0.01598518039 0.00752244507 0.03599999547 1.345403471e-38
0.01635295458 0.00752244507 0.03599999547 1.354623034e-38
0.01672072877 0.00752244507 0.03599999547 1.345403471e-38
0.01708850296 0.00752244507 0.03599999547 1.299305656e-38
0.01745627715 0.00752244507 0.03599999547 1.336183908e-38
0.01782405134 0.00752244507 0.03599999547 1.317744782e-38
0.01813768389 0.007500057129 0.03500000834 1.336183908e-38
0.01850436353 0.007500057129 0.03500000834 1.363734697e-38
0.01887104317 0.007500057129 0.03500000834 1.363734697e-38
0.0192377228 0.007500057129 0.03500000834 1.37295426e-38
0.01960440244 0.007500057129 0.03500000834 1.382173823e-38
0.01997108208 0.007500057129 0.03500000834 1.37295426e-38
0.02033776172 0.007500057129 0.03500000834 1.37295426e-38
0.02070444136 0.007500057129 0.03500000834 1.38213823e-38
0.021071121 0.007500057129 0.03500000834 1.391357793e-38
0.02143780064 0.007500057129 0.03500000834 1.38213823e-38
0.02180448027 0.007500057129 0.03500000834 1.391357793e-38
0.02217115991 0.007500057129 0.03500000834 1.391357793e-38
0.02253783955 0.007500057129 0.03500000834 1.391357793e-38
0.02290451919 0.007500057129 0.03500000834 1.372918667e-38
0.02327119883 0.007500057129 0.03500000834 1.38213823e-38
0.02370843839 0.00752244507 0.03599999547 1.363699104e-38
0.02407621258 0.00752244507 0.03599999547 1.363699104e-38
0.02444398677 0.00752244507 0.03599999547 1.38213823e-38
0.02481176096 0.00752244507 0.03599999547 1.363699104e-38
0.02517953515 0.00752244507 0.03599999547 1.363699104e-38
-0.02953066913 0.007866665079 0.03500000834 1.253064629e-38
-0.02916398949 0.007866665079 0.03500000834 1.2899426e-38
-0.02879730985 0.007866665079 0.03500000834 1.2899426e-38
-0.02843063021 0.007866665079 0.03500000834 1.2899426e-38
-0.02513051347 0.007866665079 0.03500000834 1.308381726e-38
-0.02468991069 0.0078431821 0.03399999142 1.308381726e-38
-0.02432432563 0.0078431821 0.03399999142 1.2899426e-38
-0.02395874058 0.0078431821 0.03399999142 1.271503474e-38
-0.02359315552 0.0078431821 0.03399999142 1.253064348e-38
-0.02322757047 0.0078431821 0.03399999142 1.253064348e-38
-0.02286198542 0.0078431821 0.03399999142 1.299162163e-38
-0.02249640036 0.0078431821 0.03399999142 1.2899426e-38
-0.02213081531 0.0078431821 0.03399999142 1.2899426e-38
-0.02176523025 0.0078431821 0.03399999142 1.2899426e-38
-0.0213996452 0.0078431821 0.03399999142 1.271503474e-38
-0.02103406015 0.0078431821 0.03399999142 1.271503474e-38
-0.01064801119 0.007021291823 -0.001000005007 1.161048645e-38
-0.01032073594 0.007021291823 -0.001000005007 1.170268208e-38
-0.009993460696 0.007021291823 -0.001000005007 1.188707334e-38
-0.00966618545 0.007021291823 -0.001000005007 1.151901249e-38
-0.009307676792 0.006997809544 -0.001999992132 1.151901249e-38
-0.008981496098 0.006997809544 -0.001999992132 1.179559938e-38
-0.008655315404 0.006997809544 -0.001999992132 1.179559938e-38
-0.00832913471 0.006997809544 -0.001999992132 1.142969653e-38
-0.008002954016 0.006997809544 -0.001999992132 1.106091401e-38
-0.007676773323 0.006997809544 -0.001999992132 1.04187816e-38
-0.007350592629 0.006997809544 -0.001999992132 9.773412191e-39
-0.007047983483 0.007021291823 -0.001000005007 8.303321183e-39
-0.006720708237 0.007021291823 -0.001000005007 7.565756144e-39
-0.006393432991 0.007021291823 -0.001000005007 6.374412827e-39
-0.006066157745 0.007021291823 -0.001000005007 6.282217197e-39
-0.005738882499 0.007021291823 -0.001000005007 4.813203787e-39
-0.005411607253 0.007021291823 -0.001000005007 4.813203787e-39
-0.00510133675 0.007044774802 1.192092897e-08 4.26434881e-39
-0.004788876604 0.007068257082 0.0009999990463 4.07995755e-39
-0.004459412222 0.007068257082 0.0009999990463 4.17287625e-39
-0.004129947839 0.007068257082 0.0009999990463 4.35726751e-39
-0.003800483457 0.007068257082 0.0009999990463 4.35726751e-39
-0.003482550551 0.007091739361 0.001999986172 4.35726751e-39
-0.003162428852 0.00711522234 0.003000003099 4.541661572e-39
-0.002830775333 0.00711522234 0.003000003099 4.449465942e-39
-0.002499121814 0.00711522234 0.003000003099 4.35799058e-39
-0.002174621564 0.00713870462 0.003999990225 4.35799058e-39
-0.001841873493 0.00713870462 0.003999990225 4.08140369e-39
-0.001509125422 0.00713870462 0.003999990225 4.17359932e-39
-0.001176377351 0.00713870462 0.003999990225 4.08140369e-39
-0.0008436292797 0.00713870462 0.003999990225 3.897012431e-39
-0.0005108812088 0.00713870462 0.003999990225 4.450905076e-39
-0.000178719112 0.007162187599 0.005000007153 5.465057004e-39
0.0001546149331 0.00713870462 0.003999990225 4.636019406e-39
0.0004873630041 0.00713870462 0.003999990225 3.437476217e-39
0.000820111075 0.00713870462 0.003999990225 4.451628146e-39
0.001152859146 0.00713870462 0.003999990225 4.082845626e-39
0.001485607217 0.00713870462 0.003999990225 4.266157886e-39
0.001818355288 0.00713870462 0.003999990225 4.081766627e-39
0.002151103359 0.00713870462 0.003999990225 4.17324339e-39
0.00248385143 0.00713870462 0.003999990225 3.988852131e-39
0.002816599501 0.00713870462 0.003999990225 4.081047761e-39
0.003149347572 0.00713870462 0.003999990225 4.26543902e-39
0.003482095643 0.00713870462 0.003999990225 4.17324339e-39
0.003814843714 0.00713870462 0.003999990225 4.081047761e-39
0.004147591785 0.00713870462 0.003999990225 3.98920806e-39
0.004480339856 0.00713870462 0.003999990225 3.712621171e-39
0.004813087926 0.00713870462 0.003999990225 3.897012431e-39
0.005145835997 0.00713870462 0.003999990225 4.26579495e-39
0.005478584068 0.00713870462 0.003999990225 4.08140369e-39
0.005830448688 0.007162187599 0.005000007153 4.26579495e-39
0.006164291343 0.007162187599 0.005000007153 4.726050029e-39
0.006498133999 0.007162187599 0.005000007153 4.726050029e-39
0.006831976654 0.007162187599 0.005000007153 5.917756282e-39
0.00716581931 0.007162187599 0.005000007153 5.641169393e-39
0.007475072494 0.00713870462 0.003999990225 8.303321183e-39
0.007807820565 0.00713870462 0.003999990225 9.594060001e-39
0.008140568636 0.00713870462 0.003999990225 1.189139214e-38
0.008445444313 0.00711522234 0.003000003099 1.143041399e-38
0.008777097832 0.00711522234 0.003000003099 1.179667838e-38
0.009108751351 0.00711522234 0.003000003099 1.188887401e-38
0.009409247891 0.007091739361 0.001999986172 1.234805149e-38
0.009739806825 0.007091739361 0.001999986172 1.271683401e-38
0.01007036576 0.007091739361 0.001999986172 1.271611374e-38
0.01040092469 0.007091739361 0.001999986172 1.299270063e-38
0.01201073387 0.007937112617 0.03799999952 1.308489626e-38
0.01238069719 0.007937112617 0.03799999952 1.308489626e-38
0.01275066052 0.007937112617 0.03799999952 1.308489626e-38
0.01312062385 0.007937112617 0.03799999952 1.345367878e-38
0.01349058717 0.007937112617 0.03799999952 1.354587441e-38
0.0138605505 0.007937112617 0.03799999952 1.354587441e-38
0.01423051383 0.007937112617 0.03799999952 1.345367878e-38
0.01460047716 0.007937112617 0.03799999952 1.336148315e-38
0.01492614981 0.007913630338 0.0370000124 1.317744782e-38
0.01529501858 0.007913630338 0.0370000124 1.317744782e-38
0.01566388736 0.007913630338 0.0370000124 1.345403471e-38
0.01603275613 0.007913630338 0.0370000124 1.336183908e-38
0.01640162491 0.007913630338 0.0370000124 1.336183908e-38
0.01672072877 0.007890147359 0.03599999547 1.308525219e-38
0.01708850296 0.007890147359 0.03599999547 1.308525219e-38
0.01745627715 0.007890147359 0.03599999547 1.308525219e-38
0.01782405134 0.007890147359 0.03599999547 1.336040415e-38
0.01819182553 0.007890147359 0.03599999547 1.336040415e-38
0.01855959972 0.007890147359 0.03599999547 1.354479541e-38
0.01892737391 0.007890147359 0.03599999547 1.336040415e-38
0.0192951481 0.007890147359 0.03599999547 1.372918667e-38
0.01966292229 0.007890147359 0.03599999547 1.465114297e-38
0.02003069648 0.007890147359 0.03599999547 1.446675171e-38
0.02039847067 0.007890147359 0.03599999547 1.372918667e-38
0.02076624486 0.007890147359 0.03599999547 1.363699104e-38
0.02113401905 0.007890147359 0.03599999547 1.363699104e-38
0.02150179324 0.007890147359 0.03599999547 1.363699104e-38
0.02186956744 0.007890147359 0.03599999547 1.363699104e-38
0.02223734163 0.007890147359 0.03599999547 1.363699104e-38
0.02260511582 0.007890147359 0.03599999547 1.372918667e-38
0.02297289001 0.007890147359 0.03599999547 1.38213823e-38
0.0233406642 0.007890147359 0.03599999547 1.38213823e-38
0.02370843839 0.007890147359 0.03599999547 1.363699104e-38
0.02407621258 0.007890147359 0.03599999547 1.354479541e-38
0.02444398677 0.007890147359 0.03599999547 1.354479541e-38
0.02481176096 0.007890147359 0.03599999547 1.372918667e-38
0.02517953515 0.007890147359 0.03599999547 1.38213851e-38
-0.02961881924 0.008257849647 0.03599999547 1.262284192e-38
-0.02925104505 0.008257849647 0.03599999547 1.289942881e-38
-0.02888327086 0.008257849647 0.03599999547 1.289942881e-38
-0.02851549667 0.008257849647 0.03599999547 1.2899426e-38
-0.02814772248 0.008257849647 0.03599999547 1.271503474e-38
-0.02777994829 0.008257849647 0.03599999547 1.2899426e-38
-0.0274121741 0.008257849647 0.03599999547 1.2899426e-38
-0.02704439991 0.008257849647 0.03599999547 1.262283911e-38
-0.02667662572 0.008257849647 0.03599999547 1.262283911e-38
-0.02630885153 0.008257849647 0.03599999547 1.271503474e-38
-0.02586387274 0.00823327303 0.03500000834 1.262283911e-38
-0.0254971931 0.00823327303 0.03500000834 1.271503474e-38
-0.02513051347 0.00823327303 0.03500000834 1.299162163e-38
-0.02476383383 0.00823327303 0.03500000834 1.299162163e-38
-0.02439715419 0.00823327303 0.03500000834 1.271503474e-38
-0.02403047455 0.00823327303 0.03500000834 1.262283911e-38
-0.02359315552 0.00820869568 0.03399999142 1.262283911e-38
-0.02322757047 0.00820869568 0.03399999142 1.271503474e-38
-0.02286198542 0.00820869568 0.03399999142 1.299162163e-38
-0.02249640036 0.00820869568 0.03399999142 1.271503474e-38
-0.02213081531 0.00820869568 0.03399999142 1.262283911e-38
-0.02176523025 0.00820869568 0.03399999142 1.262283911e-38
-0.0213996452 0.00820869568 0.03399999142 1.2899426e-38
-0.02103406015 0.00820869568 0.03399999142 1.271503474e-38
-0.02066847509 0.00820869568 0.03399999142 1.262283911e-38
-0.02030289004 0.00820869568 0.03399999142 1.253064348e-38
-0.01993730498 0.00820869568 0.03399999142 1.262283911e-38
-0.01032073594 0.007348503085 -0.001000005007 1.179415744e-38
-0.009993460696 0.007348503085 -0.001000005007 1.188635307e-38
-0.00966618545 0.007348503085 -0.001000005007 1.170196181e-38
-0.009307676792 0.007323926467 -0.001999992132 1.170196181e-38
-0.008981496098 0.007323926467 -0.001999992132 1.20714674e-38
-0.008655315404 0.007323926467 -0.001999992132 1.188707614e-38
-0.00832913471 0.007323926467 -0.001999992132 1.179559938e-38
-0.008002954016 0.007323926467 -0.001999992132 1.179559938e-38
-0.007676773323 0.007323926467 -0.001999992132 1.142969373e-38
-0.007350592629 0.007323926467 -0.001999992132 1.161408499e-38
-0.007024411935 0.007323926467 -0.001999992132 1.115562777e-38
-0.006698231241 0.007323926467 -0.001999992132 1.060245399e-38
-0.006372050547 0.007323926467 -0.001999992132 8.672103702e-39
-0.006045869853 0.007323926467 -0.001999992132 7.934538663e-39
-0.005738882499 0.007348503085 -0.001000005007 6.374049891e-39
-0.005411607253 0.007348503085 -0.001000005007 6.097463001e-39
-0.005084332007 0.007348503085 -0.001000005007 3.983440316e-39
-0.00477296692 0.007373080434 1.192092897e-08 4.444418465e-39
-0.004459412222 0.007397657052 0.0009999990463 3.434588141e-39
-0.004129947839 0.007397657052 0.0009999990463 3.618979401e-39
-0.003813109485 0.007422233669 0.001999986172 4.17287625e-39
-0.003494082371 0.007446811019 0.003000003099 4.26507188e-39
-0.003162428852 0.007446811019 0.003000003099 4.35726751e-39
-0.002830775333 0.007446811019 0.003000003099 4.35726751e-39
-0.002507369635 0.007471387636 0.003999990225 4.26579495e-39
-0.002181775045 0.007495964986 0.005000007153 4.26579495e-39
-0.00184793239 0.007495964986 0.005000007153 4.26579495e-39
-0.001514089734 0.007495964986 0.005000007153 4.26579495e-39
-0.001180247079 0.007495964986 0.005000007153 4.174318186e-39
-0.0008464044231 0.007495964986 0.005000007153 3.805535667e-39
-0.0005125617676 0.007495964986 0.005000007153 3.161245258e-39
-0.000178719112 0.007495964986 0.005000007153 3.253440887e-39
0.0001551235435 0.007495964986 0.005000007153 3.898810297e-39
0.000488966199 0.007495964986 0.005000007153 3.622223407e-39
0.0008228088546 0.007495964986 0.005000007153 3.990649997e-39
0.00115665151 0.007495964986 0.005000007153 3.990649997e-39
0.001490494166 0.007495964986 0.005000007153 4.173962256e-39
0.001818355288 0.007471387636 0.003999990225 3.805179737e-39
0.002151103359 0.007471387636 0.003999990225 3.897375367e-39
0.00248385143 0.007471387636 0.003999990225 4.173962256e-39
0.002816599501 0.007471387636 0.003999990225 5.279590949e-39
0.003149347572 0.007471387636 0.003999990225 4.54202591e-39
0.003482095643 0.007471387636 0.003999990225 4.26579495e-39
0.003814843714 0.007471387636 0.003999990225 4.08140369e-39
0.004147591785 0.007471387636 0.003999990225 4.08140369e-39
0.004495078066 0.007495964986 0.005000007153 4.08140369e-39
0.004828920721 0.007495964986 0.005000007153 3.98920806e-39
0.005162763377 0.007495964986 0.005000007153 4.08140369e-39
0.005496606032 0.007495964986 0.005000007153 3.897012431e-39
0.005830448688 0.007495964986 0.005000007153 4.26579495e-39
0.006164291343 0.007495964986 0.005000007153 5.000839053e-39
0.006498133999 0.007495964986 0.005000007153 5.000839053e-39
0.006831976654 0.007495964986 0.005000007153 6.097107072e-39
0.00716581931 0.007495964986 0.005000007153 6.189302701e-39
0.007499661965 0.007495964986 0.005000007153 1.032766917e-38
0.007833504621 0.007495964986 0.005000007153 1.13418211e-38
0.01090084388 0.008307003614 0.03799999952 1.262463838e-38
0.01127080721 0.008307003614 0.03799999952 1.2900505e-38
0.01164077054 0.008307003614 0.03799999952 1.308489626e-38
0.01201073387 0.008307003614 0.03799999952 1.299270063e-38
0.01238069719 0.008307003614 0.03799999952 1.308489626e-38
0.01275066052 0.008307003614 0.03799999952 1.317709189e-38
0.01312062385 0.008307003614 0.03799999952 1.336148315e-38
0.01349058717 0.008307003614 0.03799999952 1.336148315e-38
0.0138605505 0.008307003614 0.03799999952 1.345367878e-38
0.01423051383 0.008307003614 0.03799999952 1.345367878e-38
0.01460047716 0.008307003614 0.03799999952 1.336148315e-38
0.01497044048 0.008307003614 0.03799999952 1.308525219e-38
0.01534040381 0.008307003614 0.03799999952 1.308525219e-38
0.01566388736 0.008282426997 0.0370000124 1.336183908e-38
0.01603275613 0.008282426997 0.0370000124 1.336183908e-38
0.01640162491 0.008282426997 0.0370000124 1.308525219e-38
0.01677049368 0.008282426997 0.0370000124 1.299305656e-38
0.01713936246 0.008282426997 0.0370000124 1.299305656e-38
0.01750823123 0.008282426997 0.0370000124 1.290086093e-38
0.01787710001 0.008282426997 0.0370000124 1.336040415e-38
0.01824596878 0.008282426997 0.0370000124 1.336040415e-38
0.01861483756 0.008282426997 0.0370000124 1.326820852e-38
0.01898370633 0.008282426997 0.0370000124 1.299162163e-38
0.01935257511 0.008282426997 0.0370000124 1.354479541e-38
0.01966292229 0.008257849647 0.03599999547 1.38213823e-38
0.02003069648 0.008257849647 0.03599999547 1.363699104e-38
0.02039847067 0.008257849647 0.03599999547 1.354479541e-38
0.02076624486 0.008257849647 0.03599999547 1.336040415e-38
0.02113401905 0.008257849647 0.03599999547 1.354479541e-38
0.02150179324 0.008257849647 0.03599999547 1.354479541e-38
0.02186956744 0.008257849647 0.03599999547 1.363699104e-38
0.02223734163 0.008257849647 0.03599999547 1.336040415e-38
0.02260511582 0.008257849647 0.03599999547 1.336040415e-38
0.02297289001 0.008257849647 0.03599999547 1.391357793e-38
0.0233406642 0.008257849647 0.03599999547 1.38213823e-38
0.02370843839 0.008257849647 0.03599999547 1.326820852e-38
0.02414786919 0.008282426997 0.0370000124 1.336040415e-38
0.02451673796 0.008282426997 0.0370000124 1.336040695e-38
0.02488560674 0.008282426997 0.0370000124 1.354479821e-38
0.02525447551 0.008282426997 0.0370000124 1.372918947e-38
-0.02961881924 0.008625551936 0.03599999547 1.271503474e-38
-0.02925104505 0.008625551936 0.03599999547 1.271503474e-38
-0.02888327086 0.008625551936 0.03599999547 1.271503474e-38
-0.02851549667 0.008625551936 0.03599999547 1.271503474e-38
-0.02814772248 0.008625551936 0.03599999547 1.262283911e-38
-0.02777994829 0.008625551936 0.03599999547 1.262283911e-38
-0.0274121741 0.008625551936 0.03599999547 1.271503474e-38
-0.02704439991 0.008625551936 0.03599999547 1.262283911e-38
-0.02667662572 0.008625551936 0.03599999547 1.253064348e-38
-0.02630885153 0.008625551936 0.03599999547 1.262283911e-38
-0.02586387274 0.00859988098 0.03500000834 1.262283911e-38
-0.0254971931 0.00859988098 0.03500000834 1.271503474e-38
-0.02513051347 0.00859988098 0.03500000834 1.262283911e-38
-0.02476383383 0.00859988098 0.03500000834 1.262283911e-38
-0.02439715419 0.00859988098 0.03500000834 1.262283911e-38
-0.02403047455 0.00859988098 0.03500000834 1.262283911e-38
-0.02366379491 0.00859988098 0.03500000834 1.271503474e-38
-0.02329711527 0.00859988098 0.03500000834 1.2899426e-38
-0.02286198542 0.00857420926 0.03399999142 1.299162163e-38
-0.02249640036 0.00857420926 0.03399999142 1.2899426e-38
-0.02213081531 0.00857420926 0.03399999142 1.262283911e-38
-0.02176523025 0.00857420926 0.03399999142 1.262283911e-38
-0.0213996452 0.00857420926 0.03399999142 1.271503474e-38
-0.02103406015 0.00857420926 0.03399999142 1.262283911e-38
-0.02066847509 0.00857420926 0.03399999142 1.262283911e-38
-0.02030289004 0.00857420926 0.03399999142 1.271503474e-38
-0.01993730498 0.00857420926 0.03399999142 1.271503474e-38
-0.00832913471 0.007650043391 -0.001999992132 1.188707614e-38
-0.008002954016 0.007650043391 -0.001999992132 1.188707614e-38
-0.007676773323 0.007650043391 -0.001999992132 1.161120812e-38
-0.007350592629 0.007650043391 -0.001999992132 1.151901249e-38
-0.007024411935 0.007650043391 -0.001999992132 1.115202784e-38
-0.006698231241 0.007650043391 -0.001999992132 1.124422347e-38
-0.006372050547 0.007650043391 -0.001999992132 1.060137499e-38
-0.006045869853 0.007650043391 -0.001999992132 1.014039684e-38
-0.005738882499 0.007675714346 -0.001000005007 8.486633443e-39
-0.005411607253 0.007675714346 -0.001000005007 7.749068404e-39
-0.005084332007 0.007675714346 -0.001000005007 6.374049891e-39
-0.00477296692 0.007701386067 1.192092897e-08 6.097463001e-39
-0.004459412222 0.007727057022 0.0009999990463 5.273460268e-39
-0.004129947839 0.007727057022 0.0009999990463 4.904677748e-39
-0.003813109485 0.007752727977 0.001999986172 4.815724723e-39
-0.003494082371 0.007778399698 0.003000003099 5.276702873e-39
-0.003172865776 0.007804070653 0.003999990225 4.54057977e-39
-0.002181775045 0.007829742374 0.005000007153 4.17287625e-39
-0.00184793239 0.007829742374 0.005000007153 4.17359932e-39
-0.001514089734 0.007829742374 0.005000007153 3.98920806e-39
-0.001180247079 0.007829742374 0.005000007153 3.805535667e-39
-0.0008464044231 0.007829742374 0.005000007153 3.621144407e-39
-0.0005125617676 0.007829742374 0.005000007153 3.345636517e-39
-0.000178719112 0.007829742374 0.005000007153 3.437832147e-39
0.0001551235435 0.007829742374 0.005000007153 3.714063107e-39
0.000488966199 0.007829742374 0.005000007153 3.806258737e-39
0.0008228088546 0.007829742374 0.005000007153 3.898454367e-39
0.00115665151 0.007829742374 0.005000007153 3.990649997e-39
0.001490494166 0.007829742374 0.005000007153 3.989570997e-39
0.001818355288 0.007804070653 0.003999990225 3.989570997e-39
0.002151103359 0.007804070653 0.003999990225 3.989570997e-39
0.00248385143 0.007804070653 0.003999990225 4.266157886e-39
0.002816599501 0.007804070653 0.003999990225 4.63422154e-39
0.003149347572 0.007804070653 0.003999990225 4.54202591e-39
0.003482095643 0.007804070653 0.003999990225 4.08140369e-39
0.003814843714 0.007804070653 0.003999990225 3.98920806e-39
0.004147591785 0.007804070653 0.003999990225 3.98920806e-39
0.004495078066 0.007829742374 0.005000007153 4.08140369e-39
0.004828920721 0.007829742374 0.005000007153 4.08140369e-39
0.005162763377 0.007829742374 0.005000007153 3.98920806e-39
0.005496606032 0.007829742374 0.005000007153 3.98920806e-39
0.005830448688 0.007829742374 0.005000007153 4.634577469e-39
0.006164291343 0.007829742374 0.005000007153 5.459654999e-39
0.006498133999 0.007829742374 0.005000007153 5.459654999e-39
0.006831976654 0.007829742374 0.005000007153 7.47608145e-39
0.00716581931 0.007829742374 0.005000007153 9.135602788e-39
0.007499661965 0.007829742374 0.005000007153 1.060245399e-38
0.007833504621 0.007829742374 0.005000007153 1.12478234e-38
0.009790953903 0.008676894611 0.03799999952 1.21643819e-38
0.01016091723 0.008676894611 0.03799999952 1.225657753e-38
0.01053088056 0.008676894611 0.03799999952 1.253244555e-38
0.01090084388 0.008676894611 0.03799999952 1.253244555e-38
0.01127080721 0.008676894611 0.03799999952 1.280830937e-38
0.01164077054 0.008676894611 0.03799999952 1.299270063e-38
0.01201073387 0.008676894611 0.03799999952 1.308489626e-38
0.01238069719 0.008676894611 0.03799999952 1.308489626e-38
0.01275066052 0.008676894611 0.03799999952 1.308489626e-38
0.01312062385 0.008676894611 0.03799999952 1.308489626e-38
0.01349058717 0.008676894611 0.03799999952 1.317709189e-38
0.0138605505 0.008676894611 0.03799999952 1.317709189e-38
0.01423051383 0.008676894611 0.03799999952 1.317709189e-38
0.01460047716 0.008676894611 0.03799999952 1.345367878e-38
0.01497044048 0.008676894611 0.03799999952 1.299270063e-38
0.01534040381 0.008676894611 0.03799999952 1.317709189e-38
0.01566388736 0.008651223656 0.0370000124 1.317744782e-38
0.01603275613 0.008651223656 0.0370000124 1.317744782e-38
0.01640162491 0.008651223656 0.0370000124 1.308525219e-38
0.01677049368 0.008651223656 0.0370000124 1.299305656e-38
0.01713936246 0.008651223656 0.0370000124 1.299305656e-38
0.01750823123 0.008651223656 0.0370000124 1.290086093e-38
0.01787710001 0.008651223656 0.0370000124 1.317636882e-38
0.01824596878 0.008651223656 0.0370000124 1.363734697e-38
0.01861483756 0.008651223656 0.0370000124 1.317636882e-38
0.01898370633 0.008651223656 0.0370000124 1.308417319e-38
0.01935257511 0.008651223656 0.0370000124 1.308417319e-38
0.01966292229 0.008625551936 0.03599999547 1.326856445e-38
0.02003069648 0.008625551936 0.03599999547 1.336076008e-38
0.02039847067 0.008625551936 0.03599999547 1.336076008e-38
0.02076624486 0.008625551936 0.03599999547 1.336076008e-38
0.02113401905 0.008625551936 0.03599999547 1.354515134e-38
0.02150179324 0.008625551936 0.03599999547 1.354515134e-38
0.02186956744 0.008625551936 0.03599999547 1.391393386e-38
0.02223734163 0.008625551936 0.03599999547 1.382173823e-38
0.02260511582 0.008625551936 0.03599999547 1.326856445e-38
0.02297289001 0.008625551936 0.03599999547 1.354479541e-38
0.0233406642 0.008625551936 0.03599999547 1.326820852e-38
0.02370843839 0.008625551936 0.03599999547 1.326821133e-38
0.02414786919 0.008651223656 0.0370000124 1.336040695e-38
0.02451673796 0.008651223656 0.0370000124 1.363699384e-38
0.02488560674 0.008651223656 0.0370000124 1.336040695e-38
0.02525447551 0.008651223656 0.0370000124 1.326821133e-38
-0.02961881924 0.008993254224 0.03599999547 1.206966533e-38
-0.02925104505 0.008993254224 0.03599999547 1.253064348e-38
-0.02888327086 0.008993254224 0.03599999547 1.253064348e-38
-0.02851549667 0.008993254224 0.03599999547 1.253064348e-38
-0.02814772248 0.008993254224 0.03599999547 1.243844785e-38
-0.02777994829 0.008993254224 0.03599999547 1.253064348e-38
-0.0274121741 0.008993254224 0.03599999547 1.299162163e-38
-0.02704439991 0.008993254224 0.03599999547 1.2899426e-38
-0.02667662572 0.008993254224 0.03599999547 1.253064348e-38
-0.02630885153 0.008993254224 0.03599999547 1.262283911e-38
-0.02586387274 0.008966488931 0.03500000834 1.262283911e-38
-0.0254971931 0.008966488931 0.03500000834 1.271503474e-38
-0.02513051347 0.008966488931 0.03500000834 1.262283911e-38
-0.02476383383 0.008966488931 0.03500000834 1.262283911e-38
-0.02439715419 0.008966488931 0.03500000834 1.262283911e-38
-0.02403047455 0.008966488931 0.03500000834 1.262283911e-38
-0.02366379491 0.008966488931 0.03500000834 1.271503474e-38
-0.02329711527 0.008966488931 0.03500000834 1.271503474e-38
-0.02286198542 0.00893972284 0.03399999142 1.253064348e-38
-0.02249640036 0.00893972284 0.03399999142 1.243844785e-38
-0.02213081531 0.00893972284 0.03399999142 1.262283911e-38
-0.02176523025 0.00893972284 0.03399999142 1.262283911e-38
-0.0213996452 0.00893972284 0.03399999142 1.299162163e-38
-0.02103406015 0.00893972284 0.03399999142 1.326820852e-38
-0.02066847509 0.00893972284 0.03399999142 1.253064348e-38
-0.02030289004 0.00893972284 0.03399999142 1.262283911e-38
-0.01993730498 0.00893972284 0.03399999142 1.262283911e-38
-0.00832913471 0.007976160315 -0.001999992132 1.151829362e-38
-0.008002954016 0.007976160315 -0.001999992132 1.124170674e-38
-0.007676773323 0.007976160315 -0.001999992132 1.151901249e-38
-0.007350592629 0.007976160315 -0.001999992132 1.151901249e-38
-0.007024411935 0.007976160315 -0.001999992132 1.133462123e-38
-0.006698231241 0.007976160315 -0.001999992132 1.142681686e-38
-0.006372050547 0.007976160315 -0.001999992132 1.124422347e-38
-0.006045869853 0.007976160315 -0.001999992132 1.087544095e-38
-0.005719689159 0.007976160315 -0.001999992132 1.023259247e-38
-0.005393508465 0.007976160315 -0.001999992132 1.041698373e-38
-0.005084332007 0.008002925608 -0.001000005007 8.855418765e-39
-0.00477296692 0.008029691699 1.192092897e-08 7.841266836e-39
-0.004459412222 0.008056456992 0.0009999990463 6.189302701e-39
-0.004129947839 0.008056456992 0.0009999990463 5.728324552e-39
-0.003813109485 0.008083222286 0.001999986172 4.443699599e-39
-0.003494082371 0.008109988377 0.003000003099 4.535895229e-39
-0.003172865776 0.00813675367 0.003999990225 4.354743771e-39
-0.002849460356 0.008163519761 0.005000007153 4.631330661e-39
-0.002515617701 0.008163519761 0.005000007153 4.07960162e-39
-0.002188928314 0.008190285054 0.005999994278 4.26399288e-39
-0.001853991106 0.008190285054 0.005999994278 4.081400888e-39
-0.001519053899 0.008190285054 0.005999994278 4.081400888e-39
-0.001184116691 0.008190285054 0.005999994278 3.805535667e-39
-0.0008491794838 0.008190285054 0.005999994278 3.621144407e-39
-0.0005142422763 0.008190285054 0.005999994278 3.345636517e-39
-0.0001793050688 0.008190285054 0.005999994278 3.437832147e-39
0.0001556321387 0.008190285054 0.005999994278 3.621867477e-39
0.0004905693462 0.008190285054 0.005999994278 3.714063107e-39
0.0008228088546 0.008163519761 0.005000007153 3.714063107e-39
0.00115665151 0.008163519761 0.005000007153 3.806258737e-39
0.001490494166 0.008163519761 0.005000007153 3.989570997e-39
0.001824336821 0.008163519761 0.005000007153 4.081766627e-39
0.002158179477 0.008163519761 0.005000007153 3.989570997e-39
0.002492022132 0.008163519761 0.005000007153 4.266157886e-39
0.002825864788 0.008163519761 0.005000007153 4.173962256e-39
0.003159707443 0.008163519761 0.005000007153 3.989570997e-39
0.003493550099 0.008163519761 0.005000007153 3.98920806e-39
0.003827392754 0.008163519761 0.005000007153 3.897012431e-39
0.00416123541 0.008163519761 0.005000007153 4.08140369e-39
0.004495078066 0.008163519761 0.005000007153 4.17359932e-39
0.004828920721 0.008163519761 0.005000007153 4.54238184e-39
0.005179690251 0.008190285054 0.005999994278 4.35799058e-39
0.005514627459 0.008190285054 0.005999994278 3.987405991e-39
0.005849564666 0.008190285054 0.005999994278 5.001557919e-39
0.006184501874 0.008190285054 0.005999994278 6.284740936e-39
0.006519439081 0.008190285054 0.005999994278 6.284740936e-39
0.006854376289 0.008190285054 0.005999994278 9.131286788e-39
0.007189313496 0.008190285054 0.005999994278 1.014543872e-38
0.009051027249 0.009046785609 0.03799999952 1.188959288e-38
0.009420990576 0.009046785609 0.03799999952 1.188959288e-38
0.009790953903 0.009046785609 0.03799999952 1.21643819e-38
0.01016091723 0.009046785609 0.03799999952 1.207218627e-38
0.01053088056 0.009046785609 0.03799999952 1.253244555e-38
0.01090084388 0.009046785609 0.03799999952 1.253244555e-38
0.01127080721 0.009046785609 0.03799999952 1.262464118e-38
0.01164077054 0.009046785609 0.03799999952 1.262464118e-38
0.01201073387 0.009046785609 0.03799999952 1.308489626e-38
0.01238069719 0.009046785609 0.03799999952 1.317709189e-38
0.01275066052 0.009046785609 0.03799999952 1.317709189e-38
0.01312062385 0.009046785609 0.03799999952 1.345367878e-38
0.01349058717 0.009046785609 0.03799999952 1.336148315e-38
0.0138605505 0.009046785609 0.03799999952 1.308489626e-38
0.01423051383 0.009046785609 0.03799999952 1.317709189e-38
0.01460047716 0.009046785609 0.03799999952 1.317709189e-38
0.01497044048 0.009046785609 0.03799999952 1.299270063e-38
0.01534040381 0.009046785609 0.03799999952 1.299270063e-38
0.01571036714 0.009046785609 0.03799999952 1.2900505e-38
0.01608033046 0.009046785609 0.03799999952 1.2900505e-38
0.01645029379 0.009046785609 0.03799999952 1.290086093e-38
0.01682025712 0.009046785609 0.03799999952 1.299305656e-38
0.01713936246 0.009020020315 0.0370000124 1.336076008e-38
0.01750823123 0.009020020315 0.0370000124 1.262319504e-38
0.01787710001 0.009020020315 0.0370000124 1.308417319e-38
0.01824596878 0.009020020315 0.0370000124 1.363734697e-38
0.01861483756 0.009020020315 0.0370000124 1.308417319e-38
0.01898370633 0.009020020315 0.0370000124 1.317636882e-38
0.01935257511 0.009020020315 0.0370000124 1.308417319e-38
0.01972144389 0.009020020315 0.0370000124 1.317636882e-38
0.02009031266 0.009020020315 0.0370000124 1.336076008e-38
0.02045918144 0.009020020315 0.0370000124 1.308417319e-38
0.02082805021 0.009020020315 0.0370000124 1.336076008e-38
0.02119691899 0.009020020315 0.0370000124 1.363734697e-38
0.02156578776 0.009020020315 0.0370000124 1.336076008e-38
0.02193465654 0.009020020315 0.0370000124 1.354515134e-38
0.02230352531 0.009020020315 0.0370000124 1.336076008e-38
0.02267239409 0.009020020315 0.0370000124 1.326856445e-38
0.02304126286 0.009020020315 0.0370000124 1.308381726e-38
0.02341013164 0.009020020315 0.0370000124 1.336040415e-38
0.02377900041 0.009020020315 0.0370000124 1.336040695e-38
0.02414786919 0.009020020315 0.0370000124 1.336040695e-38
0.02451673796 0.009020020315 0.0370000124 1.31760157e-38
0.02488560674 0.009020020315 0.0370000124 1.326821133e-38
0.02525447551 0.009020020315 0.0370000124 1.31760157e-38
-0.02961881924 0.009360956513 0.03599999547 1.243844785e-38
-0.02933810321 0.009388816974 0.0370000124 1.253064348e-38
-0.02896923443 0.009388816974 0.0370000124 1.243844785e-38
-0.02860036566 0.009388816974 0.0370000124 1.243844785e-38
-0.02823149688 0.009388816974 0.0370000124 1.243844785e-38
-0.02786262811 0.009388816974 0.0370000124 1.253064348e-38
-0.02749375933 0.009388816974 0.0370000124 1.271503474e-38
-0.02704439991 0.009360956513 0.03599999547 1.262283911e-38
-0.02667662572 0.009360956513 0.03599999547 1.262283911e-38
-0.02630885153 0.009360956513 0.03599999547 1.262283911e-38
-0.02594107734 0.009360956513 0.03599999547 1.262283911e-38
-0.02557330315 0.009360956513 0.03599999547 1.262283911e-38
-0.02520552896 0.009360956513 0.03599999547 1.253064348e-38
-0.02476383383 0.009333096881 0.03500000834 1.271539067e-38
-0.02439715419 0.009333096881 0.03500000834 1.271539067e-38
-0.02403047455 0.009333096881 0.03500000834 1.262319504e-38
-0.02366379491 0.009333096881 0.03500000834 1.253099941e-38
-0.02329711527 0.009333096881 0.03500000834 1.271539067e-38
-0.02293043563 0.009333096881 0.03500000834 1.243880378e-38
-0.02249640036 0.00930523642 0.03399999142 1.225405659e-38
-0.02213081531 0.00930523642 0.03399999142 1.262283911e-38
-0.02176523025 0.00930523642 0.03399999142 1.234625222e-38
-0.0213996452 0.00930523642 0.03399999142 1.299162163e-38
-0.02103406015 0.00930523642 0.03399999142 1.2899426e-38
-0.02066847509 0.00930523642 0.03399999142 1.243844785e-38
-0.02030289004 0.00930523642 0.03399999142 1.253064348e-38
-0.007325925794 0.008274416777 -0.00300000906 1.151829362e-38
-0.007000839684 0.008274416777 -0.00300000906 1.151901249e-38
-0.006675753575 0.008274416777 -0.00300000906 1.151901249e-38
-0.006045869853 0.008302277238 -0.001999992132 1.105911334e-38
-0.005719689159 0.008302277238 -0.001999992132 1.161300879e-38
-0.005393508465 0.008302277238 -0.001999992132 1.170520442e-38
