# .PCD v0.7 - Point Cloud Data file format
VERSION 0.7
FIELDS x y z rgb
SIZE 4 4 4 4
TYPE F F F F
COUNT 1 1 1 1
WIDTH 792
HEIGHT 1
VIEWPOINT 0 0 0 1 0 0 0
POINTS 792
DATA ascii
-0.0148675194 0.01039950631 0.01200000644 1.310495725e-39
-0.01452601478 0.01039950631 0.01200000644 1.126104465e-39
-0.01418451017 0.01039950631 0.01200000644 1.126104465e-39
-0.01384300555 0.01039950631 0.01200000644 1.218300095e-39
-0.01350150093 0.01039950631 0.01200000644 1.218656025e-39
-0.01315999631 0.01039950631 0.01200000644 1.495242915e-39
-0.01261306735 0.01023284772 0.007000011206 1.587438545e-39
-0.01227703556 0.01023284772 0.007000011206 1.679634174e-39
-0.01194100377 0.01023284772 0.007000011206 1.679634174e-39
-0.01149156755 0.01013285177 0.003999990225 1.587438545e-39
-0.01112211331 0.01009952045 0.003000003099 1.679634174e-39
-0.01079045979 0.01009952045 0.003000003099 1.587438545e-39
-0.01042428817 0.01006618813 0.001999986172 1.771829804e-39
-0.01009372924 0.01006618813 0.001999986172 1.679634174e-39
-0.009763170305 0.01006618813 0.001999986172 1.679634174e-39
-0.009401377958 0.01003285681 0.0009999990463 1.679634174e-39
-0.009071913576 0.01003285681 0.0009999990463 1.770394875e-39
-0.008742449193 0.01003285681 0.0009999990463 1.770394875e-39
-0.008412984811 0.01003285681 0.0009999990463 1.770394875e-39
-0.008083520429 0.01003285681 0.0009999990463 2.046981764e-39
-0.007754056046 0.01003285681 0.0009999990463 1.216858159e-39
-0.007399925564 0.009999525492 1.192092897e-08 2.046618828e-39
-0.007071555733 0.009999525492 1.192092897e-08 2.138814458e-39
-0.006743185903 0.009999525492 1.192092897e-08 2.231010088e-39
-0.006414816072 0.009999525492 1.192092897e-08 2.138814458e-39
-0.006086446242 0.009999525492 1.192092897e-08 1.862227568e-39
-0.005758076411 0.009999525492 1.192092897e-08 1.862227568e-39
-0.005411607253 0.009966193178 -0.001000005007 2.046618828e-39
-0.005084332007 0.009966193178 -0.001000005007 2.231010088e-39
-0.004757056762 0.009966193178 -0.001000005007 2.046618828e-39
-0.004429781516 0.009966193178 -0.001000005007 2.139533324e-39
-0.00410250627 0.009966193178 -0.001000005007 2.323924584e-39
-0.003775231024 0.009966193178 -0.001000005007 2.140256394e-39
-0.003447955778 0.009966193178 -0.001000005007 2.324647654e-39
-0.003120680532 0.009966193178 -0.001000005007 1.404133291e-39
-0.002793405286 0.009966193178 -0.001000005007 2.32608959e-39
-0.00246613004 0.009966193178 -0.001000005007 5.372861375e-39
-0.002138854794 0.009966193178 -0.001000005007 3.805535667e-39
-0.001805520832 0.009932861857 -0.001999992132 3.533264777e-39
-0.001479340138 0.009932861857 -0.001999992132 3.809851666e-39
-0.001153159444 0.009932861857 -0.001999992132 3.626186279e-39
-0.0008269787503 0.009932861857 -0.001999992132 3.533990649e-39
-0.0005007980564 0.009932861857 -0.001999992132 3.626186279e-39
-0.0001746173624 0.009932861857 -0.001999992132 3.718381909e-39
0.0001515633315 0.009932861857 -0.001999992132 4.086088231e-39
0.0004777440254 0.009932861857 -0.001999992132 3.993892601e-39
0.0008039247193 0.009932861857 -0.001999992132 3.993892601e-39
0.001130105413 0.009932861857 -0.001999992132 3.901696971e-39
0.001456286107 0.009932861857 -0.001999992132 3.901696971e-39
0.001782466801 0.009932861857 -0.001999992132 4.086088231e-39
0.002108647495 0.009932861857 -0.001999992132 3.718384711e-39
0.002434828189 0.009932861857 -0.001999992132 3.626189082e-39
0.002770273894 0.009966193178 -0.001000005007 3.994971601e-39
0.00309754914 0.009966193178 -0.001000005007 4.45594975e-39
0.003424824386 0.009966193178 -0.001000005007 3.717305712e-39
0.003752099631 0.009966193178 -0.001000005007 3.809501341e-39
0.004093018503 0.009999525492 1.192092897e-08 3.993173735e-39
0.004421388333 0.009999525492 1.192092897e-08 4.177564995e-39
0.004749758164 0.009999525492 1.192092897e-08 4.085369365e-39
0.005078127994 0.009999525492 1.192092897e-08 3.993173735e-39
0.005424519251 0.01003285681 0.0009999990463 3.993173735e-39
0.005753983634 0.01003285681 0.0009999990463 3.993173735e-39
0.006083448016 0.01003285681 0.0009999990463 3.808782475e-39
0.006434217481 0.01006618813 0.001999986172 3.993173735e-39
0.006787176718 0.01009952045 0.003000003099 3.808782475e-39
0.007142324423 0.01013285177 0.003999990225 3.808782475e-39
0.007475072494 0.01013285177 0.003999990225 3.900975303e-39
0.007807820565 0.01013285177 0.003999990225 3.439997153e-39
0.008167347276 0.01016618409 0.005000007153 3.531472516e-39
0.008501189932 0.01016618409 0.005000007153 3.531472516e-39
0.008835032588 0.01016618409 0.005000007153 3.162689996e-39
0.009168875243 0.01016618409 0.005000007153 3.347081256e-39
0.009502717899 0.01016618409 0.005000007153 3.62187028e-39
0.009836560554 0.01016618409 0.005000007153 3.71406591e-39
0.01020374836 0.01019951541 0.005999994278 4.815015666e-39
0.01053868557 0.01019951541 0.005999994278 5.275993816e-39
0.01087362278 0.01019951541 0.005999994278 6.648484386e-39
0.01120855999 0.01019951541 0.005999994278 1.015191832e-38
0.01154349719 0.01019951541 0.005999994278 1.299990331e-38
0.0118784344 0.01019951541 0.005999994278 1.253892516e-38
0.01221337161 0.01019951541 0.005999994278 1.299702224e-38
0.01254830882 0.01019951541 0.005999994278 1.308921787e-38
0.01288324602 0.01019951541 0.005999994278 1.308813887e-38
0.01321818323 0.01019951541 0.005999994278 1.281155198e-38
0.01674208988 0.01259940133 0.07799999118 1.32721742e-38
0.01715583584 0.01259940133 0.07799999118 1.345656546e-38
0.0175695818 0.01259940133 0.07799999118 1.364131265e-38
0.01798332776 0.01259940133 0.07799999118 1.364131265e-38
-0.01896557481 0.01074094416 0.01200000644 1.126107268e-39
-0.01862407019 0.01074094416 0.01200000644 1.903944223e-41
-0.01828256557 0.01074094416 0.01200000644 1.65199076e-41
-0.01794106095 0.01074094416 0.01200000644 4.796588591e-40
-0.01759955634 0.01074094416 0.01200000644 1.493810788e-39
-0.01725805172 0.01074094416 0.01200000644 1.309419528e-39
-0.0169165471 0.01074094416 0.01200000644 1.401612355e-39
-0.01657504249 0.01074094416 0.01200000644 1.309416725e-39
-0.01623353787 0.01074094416 0.01200000644 1.126104465e-39
-0.01589203325 0.01074094416 0.01200000644 1.126104465e-39
-0.01555052863 0.01074094416 0.01200000644 1.218300095e-39
-0.01520902402 0.01074094416 0.01200000644 1.310495725e-39
-0.0148675194 0.01074094416 0.01200000644 1.218300095e-39
-0.01452601478 0.01074094416 0.01200000644 1.126104465e-39
-0.01413904622 0.01070651748 0.01099998951 1.218300095e-39
-0.01379863619 0.01070651748 0.01099998951 1.310495725e-39
-0.01345822616 0.01070651748 0.01099998951 1.495242915e-39
-0.01299127807 0.01060323948 0.007999998331 1.495242915e-39
-0.01261306735 0.01056881382 0.007000011206 1.587438545e-39
-0.01227703556 0.01056881382 0.007000011206 1.587438545e-39
-0.01194100377 0.01056881382 0.007000011206 1.495242915e-39
-0.0115293694 0.01049996147 0.005000007153 1.495242915e-39
-0.01112211331 0.01043110913 0.003000003099 1.494886985e-39
-0.01079045979 0.01043110913 0.003000003099 1.310495725e-39
-0.01042428817 0.01039668244 0.001999986172 1.218300095e-39
-0.01009372924 0.01039668244 0.001999986172 1.494886985e-39
-0.009730842341 0.01036225678 0.0009999990463 1.494886985e-39
-0.009401377958 0.01036225678 0.0009999990463 1.679278245e-39
-0.009071913576 0.01036225678 0.0009999990463 1.679278245e-39
-0.008742449193 0.01036225678 0.0009999990463 1.587082615e-39
-0.008412984811 0.01036225678 0.0009999990463 1.862590504e-39
-0.008083520429 0.01036225678 0.0009999990463 2.139177394e-39
-0.007754056046 0.01036225678 0.0009999990463 1.401249419e-39
-0.007424591664 0.01036225678 0.0009999990463 1.954423198e-39
-0.007071555733 0.01032783112 1.192092897e-08 2.138814458e-39
-0.006743185903 0.01032783112 1.192092897e-08 1.954423198e-39
-0.006414816072 0.01032783112 1.192092897e-08 2.046618828e-39
-0.006086446242 0.01032783112 1.192092897e-08 2.138814458e-39
-0.005758076411 0.01032783112 1.192092897e-08 2.138814458e-39
-0.005429706581 0.01032783112 1.192092897e-08 2.046618828e-39
-0.005084332007 0.01029340444 -0.001000005007 2.046618828e-39
-0.004757056762 0.01029340444 -0.001000005007 2.046618828e-39
-0.004429781516 0.01029340444 -0.001000005007 2.047337694e-39
-0.00410250627 0.01029340444 -0.001000005007 2.047337694e-39
-0.003775231024 0.01029340444 -0.001000005007 2.046981764e-39
-0.003447955778 0.01029340444 -0.001000005007 2.415764284e-39
-0.003120680532 0.01029340444 -0.001000005007 2.325367921e-39
-0.002793405286 0.01029340444 -0.001000005007 1.311215993e-39
-0.00246613004 0.01029340444 -0.001000005007 5.464338138e-39
-0.002138854794 0.01029340444 -0.001000005007 4.26579495e-39
-0.001811579549 0.01029340444 -0.001000005007 3.53254591e-39
-0.001484304303 0.01029340444 -0.001000005007 3.440350281e-39
-0.001157029057 0.01029340444 -0.001000005007 3.440716019e-39
-0.000829753811 0.01029340444 -0.001000005007 3.717302909e-39
-0.0005007980564 0.01025897878 -0.001999992132 3.809498539e-39
-0.0001746173624 0.01025897878 -0.001999992132 4.178281058e-39
0.0001515633315 0.01025897878 -0.001999992132 3.993892601e-39
0.0004777440254 0.01025897878 -0.001999992132 3.993892601e-39
0.0008039247193 0.01025897878 -0.001999992132 3.993892601e-39
0.001130105413 0.01025897878 -0.001999992132 4.454870751e-39
0.001456286107 0.01025897878 -0.001999992132 3.901696971e-39
0.001782466801 0.01025897878 -0.001999992132 4.086088231e-39
0.002108647495 0.01025897878 -0.001999992132 3.993892601e-39
0.002434828189 0.01025897878 -0.001999992132 3.901696971e-39
0.002770273894 0.01029340444 -0.001000005007 3.901696971e-39
0.00309754914 0.01029340444 -0.001000005007 3.809501341e-39
0.003424824386 0.01029340444 -0.001000005007 3.901696971e-39
0.003764648672 0.01032783112 1.192092897e-08 3.993892601e-39
0.004093018503 0.01032783112 1.192092897e-08 3.993173735e-39
0.004421388333 0.01032783112 1.192092897e-08 4.177564995e-39
0.004749758164 0.01032783112 1.192092897e-08 4.269760625e-39
0.005078127994 0.01032783112 1.192092897e-08 4.177564995e-39
0.005424519251 0.01036225678 0.0009999990463 4.085369365e-39
0.005753983634 0.01036225678 0.0009999990463 4.085369365e-39
0.006103658547 0.01039668244 0.001999986172 3.993173735e-39
0.006434217481 0.01039668244 0.001999986172 3.808782475e-39
0.006787176718 0.01043110913 0.003000003099 3.439999956e-39
0.007142324423 0.01046553479 0.003999990225 2.794630547e-39
0.007475072494 0.01046553479 0.003999990225 2.610239287e-39
0.007807820565 0.01046553479 0.003999990225 2.241456768e-39
0.008167347276 0.01049996147 0.005000007153 2.978298737e-39
0.008501189932 0.01049996147 0.005000007153 3.347081256e-39
0.008835032588 0.01049996147 0.005000007153 3.622589146e-39
0.009168875243 0.01049996147 0.005000007153 3.622589146e-39
0.009533873949 0.01053438713 0.005999994278 3.71406591e-39
0.009868811156 0.01053438713 0.005999994278 3.71406591e-39
0.01020374836 0.01053438713 0.005999994278 4.539507776e-39
0.01053868557 0.01053438713 0.005999994278 4.816094666e-39
0.01087362278 0.01053438713 0.005999994278 6.925791543e-39
0.01120855999 0.01053438713 0.005999994278 8.216530361e-39
0.01154349719 0.01053438713 0.005999994278 1.263255992e-38
0.0118784344 0.01053438713 0.005999994278 1.22637774e-38
0.01504719357 0.01297864074 0.07700000405 1.262895999e-38
0.01545984498 0.01297864074 0.07700000405 1.262895999e-38
0.01587249639 0.01297864074 0.07700000405 1.31803345e-38
0.01628514779 0.01297864074 0.07700000405 1.345692139e-38
0.0166977992 0.01297864074 0.07700000405 1.354911702e-38
0.01715583584 0.0130130664 0.07799999118 1.364131265e-38
0.0175695818 0.0130130664 0.07799999118 1.373350828e-38
0.01798332776 0.0130130664 0.07799999118 1.364131265e-38
-0.01896557481 0.01108238202 0.01200000644 1.218302898e-39
-0.01862407019 0.01108238202 0.01200000644 5.729334888e-40
-0.01828256557 0.01108238202 0.01200000644 3.874632293e-40
-0.01794106095 0.01108238202 0.01200000644 6.640501189e-40
-0.01759955634 0.01108238202 0.01200000644 1.493810788e-39
-0.01725805172 0.01108238202 0.01200000644 1.401615158e-39
-0.0169165471 0.01108238202 0.01200000644 1.401615158e-39
-0.01657504249 0.01108238202 0.01200000644 1.309419528e-39
-0.01623353787 0.01108238202 0.01200000644 1.126104465e-39
-0.01589203325 0.01108238202 0.01200000644 1.218300095e-39
-0.01555052863 0.01108238202 0.01200000644 1.218300095e-39
-0.01520902402 0.01108238202 0.01200000644 1.310495725e-39
-0.0148675194 0.01108238202 0.01200000644 1.310495725e-39
-0.01452601478 0.01108238202 0.01200000644 1.218300095e-39
-0.01413904622 0.01104686096 0.01099998951 1.310495725e-39
-0.01379863619 0.01104686096 0.01099998951 1.310495725e-39
-0.01341495267 0.01101134096 0.01000000238 1.495242915e-39
-0.01299127807 0.01094029991 0.007999998331 1.495242915e-39
-0.01265415173 0.01094029991 0.007999998331 1.218656025e-39
-0.01231702539 0.01094029991 0.007999998331 1.218656025e-39
-0.01197989904 0.01094029991 0.007999998331 1.310495725e-39
-0.0115293694 0.01083373886 0.005000007153 1.310495725e-39
-0.01115881948 0.0107982178 0.003999990225 1.587082615e-39
-0.01082607141 0.0107982178 0.003999990225 1.587082615e-39
-0.01042428817 0.01072717675 0.001999986172 1.218300095e-39
-0.01009372924 0.01072717675 0.001999986172 1.218300095e-39
-0.009730842341 0.01069165675 0.0009999990463 1.587082615e-39
-0.009401377958 0.01069165675 0.0009999990463 1.679278245e-39
-0.009071913576 0.01069165675 0.0009999990463 1.587082615e-39
-0.008742449193 0.01069165675 0.0009999990463 1.679278245e-39
-0.008412984811 0.01069165675 0.0009999990463 1.771473874e-39
-0.008083520429 0.01069165675 0.0009999990463 2.232452024e-39
-0.007754056046 0.01069165675 0.0009999990463 1.862946434e-39
-0.007399925564 0.01065613676 1.192092897e-08 1.401968285e-39
-0.007071555733 0.01065613676 1.192092897e-08 1.954423198e-39
-0.006743185903 0.01065613676 1.192092897e-08 2.046618828e-39
-0.006414816072 0.01065613676 1.192092897e-08 2.138814458e-39
-0.006086446242 0.01065613676 1.192092897e-08 2.599792607e-39
-0.005758076411 0.01065613676 1.192092897e-08 2.231010088e-39
-0.005429706581 0.01065613676 1.192092897e-08 1.862227568e-39
-0.005084332007 0.0106206157 -0.001000005007 2.046618828e-39
-0.004757056762 0.0106206157 -0.001000005007 2.138814458e-39
-0.004429781516 0.0106206157 -0.001000005007 1.955142064e-39
-0.00410250627 0.0106206157 -0.001000005007 2.139533324e-39
-0.003775231024 0.0106206157 -0.001000005007 2.139533324e-39
-0.003447955778 0.0106206157 -0.001000005007 2.323924584e-39
-0.003120680532 0.0106206157 -0.001000005007 2.141332591e-39
-0.002793405286 0.0106206157 -0.001000005007 1.311571922e-39
-0.00246613004 0.0106206157 -0.001000005007 4.911164359e-39
-0.002138854794 0.0106206157 -0.001000005007 4.726773099e-39
-0.001811579549 0.0106206157 -0.001000005007 3.716216903e-39
-0.001484304303 0.0106206157 -0.001000005007 3.624021273e-39
-0.001157029057 0.0106206157 -0.001000005007 3.347801523e-39
-0.000829753811 0.0106206157 -0.001000005007 3.624388413e-39
-0.0005007980564 0.0105850957 -0.001999992132 3.900975303e-39
-0.0001746173624 0.0105850957 -0.001999992132 4.177562192e-39
0.0001515633315 0.0105850957 -0.001999992132 3.993173735e-39
0.0004777440254 0.0105850957 -0.001999992132 3.993173735e-39
0.0008039247193 0.0105850957 -0.001999992132 3.532914452e-39
0.001130105413 0.0105850957 -0.001999992132 4.454870751e-39
0.001456286107 0.0105850957 -0.001999992132 3.901696971e-39
0.001782466801 0.0105850957 -0.001999992132 3.901696971e-39
0.002108647495 0.0105850957 -0.001999992132 3.626189082e-39
0.002434828189 0.0105850957 -0.001999992132 3.810580341e-39
0.002761008883 0.0105850957 -0.001999992132 3.993892601e-39
0.003087189577 0.0105850957 -0.001999992132 3.901696971e-39
0.003436278842 0.01065613676 1.192092897e-08 3.993892601e-39
0.003764648672 0.01065613676 1.192092897e-08 3.993892601e-39
0.004093018503 0.01065613676 1.192092897e-08 3.808779673e-39
0.004421388333 0.01065613676 1.192092897e-08 4.269757822e-39
0.004749758164 0.01065613676 1.192092897e-08 4.085366562e-39
0.005078127994 0.01065613676 1.192092897e-08 4.177562192e-39
0.005406497825 0.01065613676 1.192092897e-08 4.454149082e-39
0.005734867655 0.01065613676 1.192092897e-08 4.085366562e-39
0.006063237486 0.01065613676 1.192092897e-08 4.454149082e-39
0.006391607316 0.01065613676 1.192092897e-08 3.808779673e-39
0.006719977146 0.01065613676 1.192092897e-08 2.886103107e-39
0.007048346977 0.01065613676 1.192092897e-08 3.070494366e-39
0.007376716807 0.01065613676 1.192092897e-08 3.162689996e-39
0.007705086638 0.01065613676 1.192092897e-08 3.623668146e-39
0.008033456468 0.01065613676 1.192092897e-08 3.622589146e-39
0.008361826299 0.01065613676 1.192092897e-08 3.530393516e-39
0.008690196129 0.01065613676 1.192092897e-08 3.346002256e-39
0.00901856596 0.01065613676 1.192092897e-08 3.622589146e-39
0.00934693579 0.01065613676 1.192092897e-08 3.989573799e-39
0.009675305621 0.01065613676 1.192092897e-08 3.989573799e-39
0.01000367545 0.01065613676 1.192092897e-08 4.816097469e-39
0.01033204528 0.01065613676 1.192092897e-08 4.631706209e-39
0.01066041511 0.01065613676 1.192092897e-08 6.097112677e-39
0.01098878494 0.01065613676 1.192092897e-08 8.309807793e-39
0.01131715477 0.01065613676 1.192092897e-08 1.272583455e-38
0.0116455246 0.01065613676 1.192092897e-08 1.180387825e-38
0.01504719357 0.01339121147 0.07700000405 1.253676436e-38
0.01545984498 0.01339121147 0.07700000405 1.207578621e-38
0.01587249639 0.01339121147 0.07700000405 1.253496509e-38
0.01628514779 0.01339121147 0.07700000405 1.327253013e-38
0.0166977992 0.01339121147 0.07700000405 1.345692139e-38
0.01715583584 0.01342673147 0.07799999118 1.354911702e-38
0.0175695818 0.01342673147 0.07799999118 1.373350828e-38
0.01798332776 0.01342673147 0.07799999118 1.345692139e-38
-0.01896557481 0.01142381987 0.01200000644 1.772196944e-39
-0.01868376195 0.0114604342 0.01299999356 9.424362757e-40
-0.01834116278 0.0114604342 0.01299999356 2.037950396e-40
-0.01794106095 0.01142381987 0.01200000644 3.881862993e-40
-0.01759955634 0.01142381987 0.01200000644 1.125028268e-39
-0.01725805172 0.01142381987 0.01200000644 1.678202047e-39
-0.0169165471 0.01142381987 0.01200000644 1.401615158e-39
-0.01657504249 0.01142381987 0.01200000644 1.309419528e-39
-0.01623353787 0.01142381987 0.01200000644 1.126107268e-39
-0.01589203325 0.01142381987 0.01200000644 1.126107268e-39
-0.01555052863 0.01142381987 0.01200000644 1.218302898e-39
-0.01520902402 0.01142381987 0.01200000644 1.310498528e-39
-0.0148675194 0.01142381987 0.01200000644 1.310495725e-39
-0.01452601478 0.01142381987 0.01200000644 1.218300095e-39
-0.01413904622 0.01138720444 0.01099998951 1.218300095e-39
-0.01379863619 0.01138720444 0.01099998951 1.494886985e-39
-0.01341495267 0.0113505901 0.01000000238 1.494886985e-39
-0.01303345701 0.01131397468 0.008999985456 1.494886985e-39
-0.01269523611 0.01131397468 0.008999985456 1.494886985e-39
-0.01235701521 0.01131397468 0.008999985456 1.494886985e-39
-0.01201879432 0.01131397468 0.008999985456 1.310495725e-39
-0.01156717012 0.01120413058 0.005999994278 1.218300095e-39
-0.01119552674 0.01116751625 0.005000007153 1.218300095e-39
-0.01086168409 0.01116751625 0.005000007153 1.679278245e-39
-0.01045880627 0.01109428649 0.003000003099 1.679278245e-39
-0.01009372924 0.01105767106 0.001999986172 1.771473874e-39
-0.009763170305 0.01105767106 0.001999986172 1.587082615e-39
-0.009401377958 0.01102105672 0.0009999990463 1.771473874e-39
-0.009071913576 0.01102105672 0.0009999990463 1.771473874e-39
-0.008742449193 0.01102105672 0.0009999990463 1.771473874e-39
-0.008412984811 0.01102105672 0.0009999990463 1.679278245e-39
-0.008083520429 0.01102105672 0.0009999990463 1.679278245e-39
-0.007754056046 0.01102105672 0.0009999990463 2.323568654e-39
-0.007399925564 0.01098444239 1.192092897e-08 1.862590504e-39
-0.007071555733 0.01098444239 1.192092897e-08 1.954423198e-39
-0.006743185903 0.01098444239 1.192092897e-08 2.138814458e-39
-0.006414816072 0.01098444239 1.192092897e-08 2.231010088e-39
-0.006086446242 0.01098444239 1.192092897e-08 2.138814458e-39
-0.005758076411 0.01098444239 1.192092897e-08 2.046618828e-39
-0.005429706581 0.01098444239 1.192092897e-08 1.770031938e-39
-0.005084332007 0.01094782696 -0.001000005007 2.231010088e-39
-0.004757056762 0.01094782696 -0.001000005007 2.507596977e-39
-0.004429781516 0.01094782696 -0.001000005007 2.507596977e-39
-0.00410250627 0.01094782696 -0.001000005007 2.415401347e-39
-0.003775231024 0.01094782696 -0.001000005007 2.139533324e-39
-0.003447955778 0.01094782696 -0.001000005007 2.139533324e-39
-0.003120680532 0.01094782696 -0.001000005007 1.956221064e-39
-0.002793405286 0.01094782696 -0.001000005007 1.310851655e-39
-0.00246613004 0.01094782696 -0.001000005007 2.514077983e-39
-0.002138854794 0.01094782696 -0.001000005007 5.556533768e-39
-0.001811579549 0.01094782696 -0.001000005007 3.808056603e-39
-0.001484304303 0.01094782696 -0.001000005007 3.992447862e-39
-0.001157029057 0.01094782696 -0.001000005007 3.439997153e-39
-0.000829753811 0.01094782696 -0.001000005007 3.993170933e-39
-0.0005024785651 0.01094782696 -0.001000005007 4.546344712e-39
-0.0001752033192 0.01094782696 -0.001000005007 3.993170933e-39
0.0001520719267 0.01094782696 -0.001000005007 3.900975303e-39
0.0004793471726 0.01094782696 -0.001000005007 4.085366562e-39
0.0008066224185 0.01094782696 -0.001000005007 4.086085428e-39
0.001133897664 0.01094782696 -0.001000005007 3.993889799e-39
0.00146117291 0.01094782696 -0.001000005007 3.901694169e-39
0.001788448156 0.01094782696 -0.001000005007 3.901694169e-39
0.002115723402 0.01094782696 -0.001000005007 3.809498539e-39
0.002442998648 0.01094782696 -0.001000005007 3.901694169e-39
0.002770273894 0.01094782696 -0.001000005007 3.993889799e-39
0.00309754914 0.01094782696 -0.001000005007 4.086085428e-39
0.003436278842 0.01098444239 1.192092897e-08 4.086085428e-39
0.003764648672 0.01098444239 1.192092897e-08 3.993889799e-39
0.004093018503 0.01098444239 1.192092897e-08 4.085366562e-39
0.004421388333 0.01098444239 1.192092897e-08 4.638540342e-39
0.004749758164 0.01098444239 1.192092897e-08 4.546344712e-39
0.005078127994 0.01098444239 1.192092897e-08 3.532192783e-39
0.005406497825 0.01098444239 1.192092897e-08 3.532192783e-39
0.005734867655 0.01098444239 1.192092897e-08 2.610236485e-39
0.006063237486 0.01098444239 1.192092897e-08 2.241451163e-39
0.006391607316 0.01098444239 1.192092897e-08 2.610233682e-39
0.006719977146 0.01098444239 1.192092897e-08 3.162687194e-39
0.007048346977 0.01098444239 1.192092897e-08 3.715860973e-39
0.007376716807 0.01098444239 1.192092897e-08 3.899173233e-39
0.007705086638 0.01098444239 1.192092897e-08 3.991368863e-39
0.008033456468 0.01098444239 1.192092897e-08 3.806261539e-39
0.008361826299 0.01098444239 1.192092897e-08 3.62187028e-39
0.008690196129 0.01098444239 1.192092897e-08 3.62187028e-39
0.00901856596 0.01098444239 1.192092897e-08 3.71406591e-39
0.00934693579 0.01098444239 1.192092897e-08 4.265444625e-39
0.009675305621 0.01098444239 1.192092897e-08 4.173248996e-39
0.01000367545 0.01098444239 1.192092897e-08 4.724620705e-39
0.01033204528 0.01098444239 1.192092897e-08 4.632425075e-39
0.01066041511 0.01098444239 1.192092897e-08 6.006358983e-39
0.01098878494 0.01098444239 1.192092897e-08 8.03466284e-39
0.01131715477 0.01098444239 1.192092897e-08 1.254252509e-38
0.0116455246 0.01098444239 1.192092897e-08 1.162056879e-38
0.01504719357 0.0138037822 0.07700000405 1.262932292e-38
0.01545984498 0.0138037822 0.07700000405 1.309030107e-38
0.01587249639 0.0138037822 0.07700000405 1.32721742e-38
0.01628514779 0.0138037822 0.07700000405 1.299558731e-38
0.0166977992 0.0138037822 0.07700000405 1.32721742e-38
0.01715583584 0.01384039654 0.07799999118 1.364095672e-38
0.0175695818 0.01384039654 0.07799999118 1.364095672e-38
0.01798332776 0.01384039654 0.07799999118 1.354876109e-38
-0.01896557481 0.01176525772 0.01200000644 1.587805685e-39
-0.01868376195 0.01180296639 0.01299999356 8.502406458e-40
-0.01834116278 0.01180296639 0.01299999356 1.940658243e-41
-0.01794106095 0.01176525772 0.01200000644 1.904644873e-41
-0.01759955634 0.01176525772 0.01200000644 1.125028268e-39
-0.01725805172 0.01176525772 0.01200000644 1.493810788e-39
-0.0169165471 0.01176525772 0.01200000644 1.401615158e-39
-0.01657504249 0.01176525772 0.01200000644 1.309419528e-39
-0.01623353787 0.01176525772 0.01200000644 1.033911638e-39
-0.01589203325 0.01176525772 0.01200000644 1.126107268e-39
-0.01555052863 0.01176525772 0.01200000644 1.126107268e-39
-0.01520902402 0.01176525772 0.01200000644 1.218302898e-39
-0.0148675194 0.01176525772 0.01200000644 1.218302898e-39
-0.01452601478 0.01176525772 0.01200000644 1.126107268e-39
-0.01413904622 0.01172754792 0.01099998951 1.126104465e-39
-0.01379863619 0.01172754792 0.01099998951 1.310495725e-39
-0.01341495267 0.01168983925 0.01000000238 1.587082615e-39
-0.01303345701 0.01165212945 0.008999985456 1.587082615e-39
-0.01269523611 0.01165212945 0.008999985456 1.587082615e-39
-0.01235701521 0.01165212945 0.008999985456 1.587082615e-39
-0.01201879432 0.01165212945 0.008999985456 1.587082615e-39
-0.01156717012 0.01153900231 0.005999994278 1.218300095e-39
-0.01119552674 0.01150129363 0.005000007153 1.310495725e-39
-0.01086168409 0.01150129363 0.005000007153 1.494886985e-39
-0.01045880627 0.01142587516 0.003000003099 1.494886985e-39
-0.01009372924 0.01138816537 0.001999986172 1.679278245e-39
-0.009763170305 0.01138816537 0.001999986172 1.494886985e-39
-0.009401377958 0.01135045669 0.0009999990463 1.771473874e-39
-0.009071913576 0.01135045669 0.0009999990463 1.771473874e-39
-0.008742449193 0.01135045669 0.0009999990463 1.679278245e-39
-0.008412984811 0.01135045669 0.0009999990463 1.679278245e-39
-0.008083520429 0.01135045669 0.0009999990463 1.679278245e-39
-0.007754056046 0.01135045669 0.0009999990463 1.862590504e-39
-0.007399925564 0.01131274802 1.192092897e-08 1.954786134e-39
-0.007071555733 0.01131274802 1.192092897e-08 1.862590504e-39
-0.006743185903 0.01131274802 1.192092897e-08 1.954786134e-39
-0.006414816072 0.01131274802 1.192092897e-08 2.415401347e-39
-0.006086446242 0.01131274802 1.192092897e-08 2.138814458e-39
-0.005758076411 0.01131274802 1.192092897e-08 2.138814458e-39
-0.005429706581 0.01131274802 1.192092897e-08 2.138814458e-39
-0.005084332007 0.01127503822 -0.001000005007 2.415401347e-39
-0.004757056762 0.01127503822 -0.001000005007 2.415401347e-39
-0.004429781516 0.01127503822 -0.001000005007 2.415401347e-39
-0.00410250627 0.01127503822 -0.001000005007 2.415401347e-39
-0.003775231024 0.01127503822 -0.001000005007 2.415401347e-39
-0.003447955778 0.01127503822 -0.001000005007 2.231010088e-39
-0.003120680532 0.01127503822 -0.001000005007 2.415764284e-39
-0.002793405286 0.01127503822 -0.001000005007 1.862590504e-39
-0.00246613004 0.01127503822 -0.001000005007 3.935784958e-40
-0.002138854794 0.01127503822 -0.001000005007 5.833120658e-39
-0.001811579549 0.01127503822 -0.001000005007 4.176839122e-39
-0.001484304303 0.01127503822 -0.001000005007 4.176839122e-39
-0.001157029057 0.01127503822 -0.001000005007 3.900975303e-39
-0.000829753811 0.01127503822 -0.001000005007 4.546344712e-39
-0.0005007980564 0.01123732955 -0.001999992132 4.730735971e-39
-0.0001746173624 0.01123732955 -0.001999992132 4.454149082e-39
0.0001515633315 0.01123732955 -0.001999992132 3.900975303e-39
0.0004777440254 0.01123732955 -0.001999992132 4.177562192e-39
0.0008039247193 0.01123732955 -0.001999992132 4.269757822e-39
0.001130105413 0.01123732955 -0.001999992132 4.085366562e-39
0.001456286107 0.01123732955 -0.001999992132 3.809498539e-39
0.001782466801 0.01123732955 -0.001999992132 3.901694169e-39
0.002108647495 0.01123732955 -0.001999992132 3.718381909e-39
0.002434828189 0.01123732955 -0.001999992132 3.718381909e-39
0.002761008883 0.01123732955 -0.001999992132 3.718381909e-39
0.003087189577 0.01123732955 -0.001999992132 3.902773169e-39
0.003436278842 0.01131274802 1.192092897e-08 4.086085428e-39
0.003764648672 0.01131274802 1.192092897e-08 3.901694169e-39
0.004093018503 0.01131274802 1.192092897e-08 3.624388413e-39
0.004421388333 0.01131274802 1.192092897e-08 3.163410264e-39
0.004749758164 0.01131274802 1.192092897e-08 3.163410264e-39
0.005078127994 0.01131274802 1.192092897e-08 3.255605894e-39
0.005406497825 0.01131274802 1.192092897e-08 2.979019004e-39
0.005734867655 0.01131274802 1.192092897e-08 3.163410264e-39
0.006063237486 0.01131274802 1.192092897e-08 3.439274083e-39
0.006391607316 0.01131274802 1.192092897e-08 3.439274083e-39
0.006719977146 0.01131274802 1.192092897e-08 3.621867477e-39
0.007048346977 0.01131274802 1.192092897e-08 3.621867477e-39
0.007376716807 0.01131274802 1.192092897e-08 3.806258737e-39
0.007705086638 0.01131274802 1.192092897e-08 3.990649997e-39
0.008033456468 0.01131274802 1.192092897e-08 3.898457169e-39
0.008361826299 0.01131274802 1.192092897e-08 3.71406591e-39
0.008690196129 0.01131274802 1.192092897e-08 3.897380972e-39
0.00901856596 0.01131274802 1.192092897e-08 3.989576602e-39
0.00934693579 0.01131274802 1.192092897e-08 4.357640255e-39
0.009675305621 0.01131274802 1.192092897e-08 4.357640255e-39
0.01000367545 0.01131274802 1.192092897e-08 4.632425075e-39
0.01033204528 0.01131274802 1.192092897e-08 4.724620705e-39
0.01066041511 0.01131274802 1.192092897e-08 7.021229778e-39
0.01098878494 0.01131274802 1.192092897e-08 6.375860369e-39
0.01131715477 0.01131274802 1.192092897e-08 1.208226581e-38
0.0116455246 0.01131274802 1.192092897e-08 1.226665707e-38
0.01197389443 0.01131274802 1.192092897e-08 1.30895822e-38
0.01545984498 0.01421635293 0.07700000405 1.410373413e-38
0.01587249639 0.01421635293 0.07700000405 1.345692139e-38
0.01628514779 0.01421635293 0.07700000405 1.262716072e-38
0.01674208988 0.01425406161 0.07799999118 1.382534798e-38
0.01715583584 0.01425406161 0.07799999118 1.364095672e-38
0.0175695818 0.01425406161 0.07799999118 1.364095672e-38
0.01798332776 0.01425406161 0.07799999118 1.364095672e-38
-0.01902636112 0.01214549858 0.01299999356 1.587805685e-39
-0.01868376195 0.01214549858 0.01299999356 1.403414425e-39
-0.01834116278 0.01214549858 0.01299999356 1.033558511e-39
-0.01799856361 0.01214549858 0.01299999356 1.832618132e-41
-0.01765596444 0.01214549858 0.01299999356 5.714985592e-40
-0.01731336527 0.01214549858 0.01299999356 1.216867968e-39
-0.01697076611 0.01214549858 0.01299999356 1.401615158e-39
-0.01662816694 0.01214549858 0.01299999356 1.401615158e-39
-0.01623353787 0.01210669557 0.01200000644 1.126107268e-39
-0.01589203325 0.01210669557 0.01200000644 1.033911638e-39
-0.01555052863 0.01210669557 0.01200000644 1.126107268e-39
-0.01520902402 0.01210669557 0.01200000644 1.218302898e-39
-0.0148675194 0.01210669557 0.01200000644 1.310498528e-39
-0.01452601478 0.01210669557 0.01200000644 1.218302898e-39
-0.01413904622 0.0120678914 0.01099998951 1.310495725e-39
-0.01379863619 0.0120678914 0.01099998951 1.494886985e-39
-0.01341495267 0.01202908839 0.01000000238 1.587082615e-39
-0.01307563719 0.01202908839 0.01000000238 1.587082615e-39
-0.01273632171 0.01202908839 0.01000000238 1.770394875e-39
-0.01239700623 0.01202908839 0.01000000238 1.678199245e-39
-0.01205769075 0.01202908839 0.01000000238 1.678199245e-39
-0.01171837527 0.01202908839 0.01000000238 1.678199245e-39
-0.01123223292 0.01187387403 0.005999994278 1.862590504e-39
-0.01089729571 0.01187387403 0.005999994278 1.862590504e-39
-0.01049332334 0.01179626685 0.003999990225 1.770394875e-39
-0.01009372924 0.01171865968 0.001999986172 1.493807985e-39
-0.009763170305 0.01171865968 0.001999986172 1.678199245e-39
-0.00943261137 0.01171865968 0.001999986172 1.862590504e-39
-0.009071913576 0.01167985666 0.0009999990463 1.770394875e-39
-0.008742449193 0.01167985666 0.0009999990463 1.862590504e-39
-0.008412984811 0.01167985666 0.0009999990463 1.862590504e-39
-0.008083520429 0.01167985666 0.0009999990463 1.954786134e-39
-0.007754056046 0.01167985666 0.0009999990463 1.862590504e-39
-0.007399925564 0.01164105365 1.192092897e-08 1.862590504e-39
-0.007071555733 0.01164105365 1.192092897e-08 1.954786134e-39
-0.006743185903 0.01164105365 1.192092897e-08 1.862590504e-39
-0.006414816072 0.01164105365 1.192092897e-08 2.046262898e-39
-0.006086446242 0.01164105365 1.192092897e-08 2.138458528e-39
-0.005758076411 0.01164105365 1.192092897e-08 2.231010088e-39
-0.005429706581 0.01164105365 1.192092897e-08 2.231010088e-39
-0.005084332007 0.01160224949 -0.001000005007 2.138814458e-39
-0.004757056762 0.01160224949 -0.001000005007 2.138814458e-39
-0.004429781516 0.01160224949 -0.001000005007 2.138814458e-39
-0.00410250627 0.01160224949 -0.001000005007 2.138814458e-39
-0.003775231024 0.01160224949 -0.001000005007 2.138814458e-39
-0.003447955778 0.01160224949 -0.001000005007 2.138814458e-39
-0.003120680532 0.01160224949 -0.001000005007 2.323568654e-39
-0.002793405286 0.01160224949 -0.001000005007 2.323568654e-39
-0.00246613004 0.01160224949 -0.001000005007 3.928582284e-40
-0.002138854794 0.01160224949 -0.001000005007 4.910444092e-39
-0.001811579549 0.01160224949 -0.001000005007 3.623665343e-39
-0.001484304303 0.01160224949 -0.001000005007 3.992447862e-39
-0.001157029057 0.01160224949 -0.001000005007 3.900978105e-39
-0.0008269787503 0.01156344647 -0.001999992132 3.993173735e-39
-0.0005007980564 0.01156344647 -0.001999992132 3.900978105e-39
-0.0001746173624 0.01156344647 -0.001999992132 3.900978105e-39
0.0001515633315 0.01156344647 -0.001999992132 3.9009725e-39
0.0004777440254 0.01156344647 -0.001999992132 4.17755939e-39
0.0008039247193 0.01156344647 -0.001999992132 4.17755939e-39
0.001130105413 0.01156344647 -0.001999992132 3.99316813e-39
0.001456286107 0.01156344647 -0.001999992132 3.626183476e-39
0.001782466801 0.01156344647 -0.001999992132 3.718379106e-39
0.002108647495 0.01156344647 -0.001999992132 3.626183476e-39
0.002434828189 0.01156344647 -0.001999992132 3.626183476e-39
0.002761008883 0.01156344647 -0.001999992132 3.718379106e-39
0.003087189577 0.01156344647 -0.001999992132 3.902770366e-39
0.003413370271 0.01156344647 -0.001999992132 3.993886996e-39
0.003739550965 0.01156344647 -0.001999992132 3.901691366e-39
0.004065731658 0.01156344647 -0.001999992132 3.25632476e-39
0.004391912352 0.01156344647 -0.001999992132 2.88754224e-39
0.004718093046 0.01156344647 -0.001999992132 3.163410264e-39
0.00504427374 0.01156344647 -0.001999992132 3.163410264e-39
0.005370454434 0.01156344647 -0.001999992132 2.979019004e-39
0.005696635128 0.01156344647 -0.001999992132 2.979019004e-39
0.006022815822 0.01156344647 -0.001999992132 3.439276886e-39
0.006348996516 0.01156344647 -0.001999992132 3.531472516e-39
0.00667517721 0.01156344647 -0.001999992132 3.71406591e-39
0.007001357904 0.01156344647 -0.001999992132 3.71406591e-39
0.007327538598 0.01156344647 -0.001999992132 3.62187028e-39
0.007653719292 0.01156344647 -0.001999992132 3.898457169e-39
0.007979899985 0.01156344647 -0.001999992132 3.714068712e-39
0.008306080679 0.01156344647 -0.001999992132 3.898459972e-39
0.008632261373 0.01156344647 -0.001999992132 3.989576602e-39
0.008958442067 0.01156344647 -0.001999992132 4.081772232e-39
0.009284622761 0.01156344647 -0.001999992132 4.173248996e-39
0.009610803455 0.01156344647 -0.001999992132 4.265444625e-39
0.009936984149 0.01156344647 -0.001999992132 4.632425075e-39
0.01026316484 0.01156344647 -0.001999992132 4.724620705e-39
0.01058934554 0.01156344647 -0.001999992132 6.284387809e-39
0.01091552623 0.01156344647 -0.001999992132 5.54682277e-39
0.01124170692 0.01156344647 -0.001999992132 1.079117106e-38
0.01156788762 0.01156344647 -0.001999992132 1.24506924e-38
0.01189406831 0.01156344647 -0.001999992132 1.272151855e-38
0.01545984498 0.01462892367 0.07700000405 1.31824967e-38
0.01587249639 0.01462892367 0.07700000405 1.290339168e-38
0.01628514779 0.01462892367 0.07700000405 1.290339168e-38
0.01674208988 0.01466772668 0.07799999118 1.354876109e-38
0.01715583584 0.01466772668 0.07799999118 1.364095672e-38
0.0175695818 0.01466772668 0.07799999118 1.373315235e-38
0.01798332776 0.01466772668 0.07799999118 1.382534798e-38
-0.01902636112 0.01248803077 0.01299999356 1.679278245e-39
-0.01868376195 0.01248803077 0.01299999356 1.587082615e-39
-0.01834116278 0.01248803077 0.01299999356 1.678925117e-39
-0.01799856361 0.01248803077 0.01299999356 1.760311131e-41
-0.01765596444 0.01248803077 0.01299999356 4.793029293e-40
-0.01731336527 0.01248803077 0.01299999356 1.401259228e-39
-0.01697076611 0.01248803077 0.01299999356 1.309419528e-39
-0.01662816694 0.01248803077 0.01299999356 1.401615158e-39
-0.01628556777 0.01248803077 0.01299999356 1.218302898e-39
-0.0159429686 0.01248803077 0.01299999356 1.218302898e-39
-0.01555052863 0.01244813342 0.01200000644 1.310498528e-39
-0.01520902402 0.01244813342 0.01200000644 1.310498528e-39
-0.0148675194 0.01244813342 0.01200000644 1.494886985e-39
-0.01452601478 0.01244813342 0.01200000644 1.587082615e-39
-0.01413904622 0.01240823488 0.01099998951 1.310495725e-39
-0.01379863619 0.01240823488 0.01099998951 1.679278245e-39
-0.01345822616 0.01240823488 0.01099998951 1.954786134e-39
-0.01311781613 0.01240823488 0.01099998951 1.770394875e-39
-0.01277740609 0.01240823488 0.01099998951 1.678199245e-39
-0.01243699606 0.01240823488 0.01099998951 1.770394875e-39
-0.01209658603 0.01240823488 0.01099998951 1.769676009e-39
-0.011756176 0.01240823488 0.01099998951 1.769676009e-39
-0.01141576596 0.01240823488 0.01099998951 1.769676009e-39
-0.01107535593 0.01240823488 0.01099998951 2.046262898e-39
-0.01052784143 0.01216884841 0.005000007153 2.138458528e-39
-0.01012715275 0.01208905252 0.003000003099 2.138458528e-39
-0.009795499232 0.01208905252 0.003000003099 2.138458528e-39
-0.00943261137 0.01204915398 0.001999986172 1.861871638e-39
-0.009071913576 0.01200925663 0.0009999990463 1.861871638e-39
-0.008742449193 0.01200925663 0.0009999990463 1.954067268e-39
-0.008412984811 0.01200925663 0.0009999990463 1.954067268e-39
-0.008083520429 0.01200925663 0.0009999990463 2.046262898e-39
-0.007754056046 0.01200925663 0.0009999990463 1.954067268e-39
-0.007399925564 0.01196935929 1.192092897e-08 2.138458528e-39
-0.007071555733 0.01196935929 1.192092897e-08 2.230654158e-39
-0.006743185903 0.01196935929 1.192092897e-08 1.954067268e-39
-0.006414816072 0.01196935929 1.192092897e-08 2.046262898e-39
-0.006086446242 0.01196935929 1.192092897e-08 2.230654158e-39
-0.005758076411 0.01196935929 1.192092897e-08 2.230654158e-39
-0.005429706581 0.01196935929 1.192092897e-08 2.230654158e-39
-0.005084332007 0.01192946075 -0.001000005007 2.138814458e-39
-0.004757056762 0.01192946075 -0.001000005007 1.862227568e-39
-0.004429781516 0.01192946075 -0.001000005007 1.862227568e-39
-0.00410250627 0.01192946075 -0.001000005007 2.138814458e-39
-0.003775231024 0.01192946075 -0.001000005007 2.138458528e-39
-0.003447955778 0.01192946075 -0.001000005007 2.138458528e-39
-0.003120680532 0.01192946075 -0.001000005007 2.230654158e-39
-0.002793405286 0.01192946075 -0.001000005007 2.230654158e-39
-0.00246613004 0.01192946075 -0.001000005007 5.761704883e-40
-0.002138854794 0.01192946075 -0.001000005007 4.079604423e-39
-0.001811579549 0.01192946075 -0.001000005007 3.346002256e-39
-0.001484304303 0.01192946075 -0.001000005007 4.267958555e-39
-0.001157029057 0.01192946075 -0.001000005007 3.900978105e-39
-0.0008269787503 0.0118895634 -0.001999992132 3.993173735e-39
-0.0005007980564 0.0118895634 -0.001999992132 3.993173735e-39
-0.0001746173624 0.0118895634 -0.001999992132 3.900978105e-39
0.0001515633315 0.0118895634 -0.001999992132 4.08536376e-39
0.0004777440254 0.0118895634 -0.001999992132 4.08536376e-39
0.0008039247193 0.0118895634 -0.001999992132 4.454146279e-39
0.001130105413 0.0118895634 -0.001999992132 4.08536376e-39
0.001456286107 0.0118895634 -0.001999992132 3.626183476e-39
0.001782466801 0.0118895634 -0.001999992132 3.626183476e-39
0.002108647495 0.0118895634 -0.001999992132 3.626183476e-39
0.002434828189 0.0118895634 -0.001999992132 3.533987847e-39
0.002761008883 0.0118895634 -0.001999992132 3.533987847e-39
0.003087189577 0.0118895634 -0.001999992132 2.335444658e-39
0.003413370271 0.0118895634 -0.001999992132 2.612031548e-39
0.003739550965 0.0118895634 -0.001999992132 2.980814067e-39
0.004065731658 0.0118895634 -0.001999992132 3.164126327e-39
0.004391912352 0.0118895634 -0.001999992132 3.164126327e-39
0.004718093046 0.0118895634 -0.001999992132 3.347798721e-39
0.00504427374 0.0118895634 -0.001999992132 3.255603091e-39
0.005370454434 0.0118895634 -0.001999992132 3.347078453e-39
0.005696635128 0.0118895634 -0.001999992132 3.162687194e-39
0.006022815822 0.0118895634 -0.001999992132 3.162689996e-39
0.006348996516 0.0118895634 -0.001999992132 3.439276886e-39
0.00667517721 0.0118895634 -0.001999992132 3.62187028e-39
0.007001357904 0.0118895634 -0.001999992132 3.62187028e-39
0.007327538598 0.0118895634 -0.001999992132 3.62187028e-39
0.007653719292 0.0118895634 -0.001999992132 3.62187028e-39
0.007979899985 0.0118895634 -0.001999992132 3.71406591e-39
0.008306080679 0.0118895634 -0.001999992132 3.898457169e-39
0.008632261373 0.0118895634 -0.001999992132 4.173965059e-39
0.008958442067 0.0118895634 -0.001999992132 4.081769429e-39
0.009284622761 0.0118895634 -0.001999992132 4.173246193e-39
0.009610803455 0.0118895634 -0.001999992132 4.265441823e-39
0.009936984149 0.0118895634 -0.001999992132 4.540229445e-39
0.01026316484 0.0118895634 -0.001999992132 4.632425075e-39
0.01058934554 0.0118895634 -0.001999992132 6.101075549e-39
0.01091552623 0.0118895634 -0.001999992132 5.824488659e-39
0.01124170692 0.0118895634 -0.001999992132 9.594428542e-39
0.01156788762 0.0118895634 -0.001999992132 1.236029744e-38
0.01189406831 0.0118895634 -0.001999992132 1.272152135e-38
0.01545984498 0.0150414944 0.07700000405 1.189176069e-38
0.01587249639 0.0150414944 0.07700000405 1.308706407e-38
0.01628514779 0.0150414944 0.07700000405 1.31792597e-38
0.01674208988 0.01508139175 0.07799999118 1.336365096e-38
0.01715583584 0.01508139175 0.07799999118 1.373243348e-38
0.0175695818 0.01508139175 0.07799999118 1.391682474e-38
0.01798332776 0.01508139175 0.07799999118 1.391682474e-38
-0.01902636112 0.01283056296 0.01299999356 1.679278245e-39
-0.01868376195 0.01283056296 0.01299999356 1.587082615e-39
-0.01834116278 0.01283056296 0.01299999356 1.678925117e-39
-0.01799856361 0.01283056296 0.01299999356 1.940377984e-41
-0.01765596444 0.01283056296 0.01299999356 6.636941891e-40
-0.01731336527 0.01283056296 0.01299999356 1.309063598e-39
-0.01697076611 0.01283056296 0.01299999356 1.309419528e-39
-0.01662816694 0.01283056296 0.01299999356 1.309419528e-39
-0.01628556777 0.01283056296 0.01299999356 1.401615158e-39
-0.0159429686 0.01283056296 0.01299999356 1.401615158e-39
-0.01555052863 0.01278957127 0.01200000644 1.401612355e-39
-0.01520902402 0.01278957127 0.01200000644 1.678199245e-39
-0.0148675194 0.01278957127 0.01200000644 1.678199245e-39
-0.01452601478 0.01278957127 0.01200000644 1.678199245e-39
-0.01413904622 0.01274857836 0.01099998951 1.678199245e-39
-0.01379863619 0.01274857836 0.01099998951 1.678199245e-39
-0.01345822616 0.01274857836 0.01099998951 2.047337694e-39
-0.01307563719 0.01270758667 0.01000000238 1.862946434e-39
-0.01273632171 0.01270758667 0.01000000238 2.046618828e-39
-0.01239700623 0.01270758667 0.01000000238 2.046618828e-39
-0.01205769075 0.01270758667 0.01000000238 2.046618828e-39
-0.01171837527 0.01270758667 0.01000000238 2.415401347e-39
-0.01137905979 0.01270758667 0.01000000238 2.598713607e-39
-0.01103974431 0.01270758667 0.01000000238 2.137735458e-39
-0.01052784143 0.0125026258 0.005000007153 2.229931088e-39
-0.01012715275 0.0124206412 0.003000003099 2.229931088e-39
-0.009795499232 0.0124206412 0.003000003099 2.138814458e-39
-0.00943261137 0.01237964829 0.001999986172 2.046618828e-39
-0.009071913576 0.01233865661 0.0009999990463 1.954423198e-39
-0.008742449193 0.01233865661 0.0009999990463 1.954423198e-39
-0.008412984811 0.01233865661 0.0009999990463 1.954423198e-39
-0.008083520429 0.01233865661 0.0009999990463 2.046618828e-39
-0.007754056046 0.01233865661 0.0009999990463 1.954067268e-39
-0.007399925564 0.01229766492 1.192092897e-08 2.230654158e-39
-0.007071555733 0.01229766492 1.192092897e-08 2.230654158e-39
-0.006743185903 0.01229766492 1.192092897e-08 1.954067268e-39
-0.006414816072 0.01229766492 1.192092897e-08 2.138458528e-39
-0.006086446242 0.01229766492 1.192092897e-08 2.230654158e-39
-0.005758076411 0.01229766492 1.192092897e-08 2.415045418e-39
-0.005429706581 0.01229766492 1.192092897e-08 2.415045418e-39
-0.005084332007 0.01225667201 -0.001000005007 2.415045418e-39
-0.004757056762 0.01225667201 -0.001000005007 2.507241047e-39
-0.004429781516 0.01225667201 -0.001000005007 2.415045418e-39
-0.00410250627 0.01225667201 -0.001000005007 2.138458528e-39
-0.003775231024 0.01225667201 -0.001000005007 2.230654158e-39
-0.003447955778 0.01225667201 -0.001000005007 2.230654158e-39
-0.003120680532 0.01225667201 -0.001000005007 2.230654158e-39
-0.002793405286 0.01225667201 -0.001000005007 2.415045418e-39
-0.00246613004 0.01225667201 -0.001000005007 5.750956924e-40
-0.002138854794 0.01225667201 -0.001000005007 3.340964588e-39
-0.001811579549 0.01225667201 -0.001000005007 5.005526396e-39
-0.001484304303 0.01225667201 -0.001000005007 4.267961357e-39
-0.001153159444 0.01221568032 -0.001999992132 3.808426546e-39
-0.0008269787503 0.01221568032 -0.001999992132 3.900622175e-39
-0.0005007980564 0.01221568032 -0.001999992132 3.900978105e-39
-0.0001746173624 0.01221568032 -0.001999992132 3.900978105e-39
0.0001515633315 0.01221568032 -0.001999992132 4.269755019e-39
0.0004777440254 0.01221568032 -0.001999992132 4.08536376e-39
0.0008039247193 0.01221568032 -0.001999992132 4.822928799e-39
0.001130105413 0.01221568032 -0.001999992132 3.255603091e-39
0.001456286107 0.01221568032 -0.001999992132 3.257400957e-39
0.001782466801 0.01221568032 -0.001999992132 3.349596587e-39
0.002108647495 0.01221568032 -0.001999992132 3.810574736e-39
0.002434828189 0.01221568032 -0.001999992132 3.810574736e-39
0.002761008883 0.01221568032 -0.001999992132 3.533987847e-39
0.003087189577 0.01221568032 -0.001999992132 3.073009697e-39
0.003413370271 0.01221568032 -0.001999992132 2.887539438e-39
0.003739550965 0.01221568032 -0.001999992132 2.795343808e-39
0.004065731658 0.01221568032 -0.001999992132 2.979016201e-39
0.004391912352 0.01221568032 -0.001999992132 3.163407461e-39
0.004718093046 0.01221568032 -0.001999992132 3.163410264e-39
0.00504427374 0.01221568032 -0.001999992132 3.255605894e-39
0.005370454434 0.01221568032 -0.001999992132 3.439276886e-39
0.005696635128 0.01221568032 -0.001999992132 3.439276886e-39
0.006022815822 0.01221568032 -0.001999992132 3.530393516e-39
0.006348996516 0.01221568032 -0.001999992132 3.622589146e-39
0.00667517721 0.01221568032 -0.001999992132 3.806264342e-39
0.007001357904 0.01221568032 -0.001999992132 3.898459972e-39
0.007327538598 0.01221568032 -0.001999992132 3.806264342e-39
0.007653719292 0.01221568032 -0.001999992132 3.714068712e-39
0.007979899985 0.01221568032 -0.001999992132 3.714068712e-39
0.008306080679 0.01221568032 -0.001999992132 3.806264342e-39
0.008632261373 0.01221568032 -0.001999992132 3.898459972e-39
0.008958442067 0.01221568032 -0.001999992132 4.082851232e-39
0.009284622761 0.01221568032 -0.001999992132 4.542031515e-39
0.009610803455 0.01221568032 -0.001999992132 4.357640255e-39
0.009936984149 0.01221568032 -0.001999992132 4.909011965e-39
0.01026316484 0.01221568032 -0.001999992132 4.724620705e-39
0.01058934554 0.01221568032 -0.001999992132 6.009598785e-39
0.01091552623 0.01221568032 -0.001999992132 6.654968194e-39
0.01425961411 0.01549505682 0.07799999118 8.856863504e-39
0.01467336007 0.01549505682 0.07799999118 1.199151492e-38
0.01508710604 0.01549505682 0.07799999118 1.327577413e-38
0.015500852 0.01549505682 0.07799999118 1.235381783e-38
0.01591459796 0.01549505682 0.07799999118 1.299558731e-38
0.01632834392 0.01549505682 0.07799999118 1.317997857e-38
0.01674208988 0.01549505682 0.07799999118 1.354804222e-38
0.01715583584 0.01549505682 0.07799999118 1.382462911e-38
0.0175695818 0.01549505682 0.07799999118 1.382462911e-38
0.01798332776 0.01549505682 0.07799999118 1.382462911e-38
-0.01902636112 0.01317309515 0.01299999356 1.863669504e-39
-0.01868376195 0.01317309515 0.01299999356 1.771473874e-39
-0.01834116278 0.01317309515 0.01299999356 2.138824267e-39
-0.01799856361 0.01317309515 0.01299999356 5.714985592e-40
