# .PCD v0.7 - Point Cloud Data file format
VERSION 0.7
FIELDS x y z rgb
SIZE 4 4 4 4
TYPE F F F F
COUNT 1 1 1 1
WIDTH 804
HEIGHT 1
VIEWPOINT 0 0 0 1 0 0 0
POINTS 804
DATA ascii
-0.02918819516 0.008677029929 0.3919999719 1.428415972e-38
-0.02843075548 0.008677029929 0.3919999719 1.511464206e-38
-0.0276733158 0.008677029929 0.3919999719 1.483805517e-38
-0.02691587612 0.008677029929 0.3919999719 1.06003002e-38
-0.02615843644 0.008677029929 0.3919999719 7.650040043e-39
-0.02540099676 0.008677029929 0.3919999719 7.101901129e-39
-0.02464355708 0.008677029929 0.3919999719 7.378488018e-39
-0.02388611739 0.008677029929 0.3919999719 6.828191105e-39
-0.02312867771 0.008677029929 0.3919999719 6.735995475e-39
-0.02237123803 0.008677029929 0.3919999719 6.368652089e-39
-0.02161379835 0.008677029929 0.3919999719 6.460847719e-39
-0.02085635867 0.008677029929 0.3919999719 6.370087019e-39
-0.02009891899 0.008677029929 0.3919999719 6.277891389e-39
-0.01934147931 0.008677029929 0.3919999719 5.819429972e-39
-0.01858403962 0.008677029929 0.3919999719 6.188212491e-39
-0.01782659994 0.008677029929 0.3919999719 4.536248356e-39
-0.01706916026 0.008677029929 0.3919999719 6.380160954e-39
-0.01631172058 0.008677029929 0.3919999719 6.017865045e-39
-0.0155542809 0.008677029929 0.3919999719 6.110060675e-39
-0.01479684122 0.008677029929 0.3919999719 5.65124613e-39
-0.01403940154 0.008677029929 0.3919999719 5.282463611e-39
-0.01328196185 0.008677029929 0.3919999719 5.46649894e-39
-0.01252452217 0.008677029929 0.3919999719 5.6508902e-39
-0.01176708249 0.008677029929 0.3919999719 5.558697373e-39
-0.01100964281 0.008677029929 0.3919999719 5.558697373e-39
-0.01025220313 0.008677029929 0.3919999719 5.558697373e-39
-0.009494763448 0.008677029929 0.3919999719 5.466501743e-39
-0.008737323766 0.008677029929 0.3919999719 5.557975704e-39
-0.007979884085 0.008677029929 0.3919999719 5.650171334e-39
-0.007222444403 0.008677029929 0.3919999719 5.650171334e-39
-0.006465004722 0.008677029929 0.3919999719 5.742366964e-39
-0.005707565041 0.008677029929 0.3919999719 5.83528146e-39
-0.002110241294 0.003699022861 -0.005000013113 5.92747709e-39
-0.001787344321 0.003699022861 -0.005000013113 5.83528146e-39
-0.001464447348 0.003699022861 -0.005000013113 5.83528146e-39
-0.001141550376 0.003699022861 -0.005000013113 6.296259609e-39
-0.0008186534028 0.003699022861 -0.005000013113 5.6508902e-39
-0.0004957564301 0.003699022861 -0.005000013113 5.74308583e-39
-0.0001728594573 0.003699022861 -0.005000013113 6.11186835e-39
0.0001500375155 0.003699022861 -0.005000013113 5.46649894e-39
0.0004729344883 0.003699022861 -0.005000013113 5.74308583e-39
0.000795831461 0.003699022861 -0.005000013113 5.6508902e-39
0.001118728434 0.003699022861 -0.005000013113 5.6508902e-39
0.001441625407 0.003699022861 -0.005000013113 5.65124613e-39
0.001758541024 0.003686483961 -0.006000000238 5.65124613e-39
0.002080343445 0.003686483961 -0.006000000238 5.74344176e-39
0.002402145866 0.003686483961 -0.006000000238 5.83563739e-39
0.002723948287 0.003686483961 -0.006000000238 5.927111351e-39
0.003045750708 0.003686483961 -0.006000000238 5.650524461e-39
0.003367553128 0.003686483961 -0.006000000238 5.742720091e-39
0.003689355549 0.003686483961 -0.006000000238 5.927111351e-39
0.00401115797 0.003686483961 -0.006000000238 5.834915721e-39
0.004347698162 0.003699022861 -0.005000013113 5.927111351e-39
0.004670595134 0.003699022861 -0.005000013113 5.834915721e-39
0.004993492107 0.003699022861 -0.005000013113 5.834915721e-39
0.00531638908 0.003699022861 -0.005000013113 5.65124613e-39
0.005639286053 0.003699022861 -0.005000013113 5.5590505e-39
0.005962183025 0.003699022861 -0.005000013113 5.282463611e-39
0.006285079998 0.003699022861 -0.005000013113 5.098072351e-39
0.006607976971 0.003699022861 -0.005000013113 5.92783302e-39
0.006930873944 0.003699022861 -0.005000013113 5.92783302e-39
0.007253770917 0.003699022861 -0.005000013113 5.92783302e-39
0.007576667889 0.003699022861 -0.005000013113 5.83563739e-39
0.007899564862 0.003699022861 -0.005000013113 5.927111351e-39
0.008222461835 0.003699022861 -0.005000013113 5.834915721e-39
0.008545358808 0.003699022861 -0.005000013113 5.558328831e-39
0.00886825578 0.003699022861 -0.005000013113 5.927111351e-39
0.009191152753 0.003699022861 -0.005000013113 6.110423611e-39
0.009514049726 0.003699022861 -0.005000013113 6.47920613e-39
0.009836946699 0.003699022861 -0.005000013113 6.018227981e-39
0.01015984367 0.003699022861 -0.005000013113 6.110423611e-39
0.01048274064 0.003699022861 -0.005000013113 5.926035154e-39
0.01080563762 0.003699022861 -0.005000013113 5.833839524e-39
0.01112853459 0.003699022861 -0.005000013113 6.294098807e-39
0.01145143156 0.003699022861 -0.005000013113 6.570685697e-39
0.01177432854 0.003699022861 -0.005000013113 7.305732602e-39
0.01209722551 0.003699022861 -0.005000013113 7.029145713e-39
0.01242012248 0.003699022861 -0.005000013113 6.658562525e-39
0.01274301945 0.003699022861 -0.005000013113 5.091236817e-39
0.01306591643 0.003699022861 -0.005000013113 3.798698732e-39
0.0134795852 0.003724101034 -0.00300000906 2.968938063e-39
0.01380467131 0.003724101034 -0.00300000906 1.954067268e-39
0.01412975742 0.003724101034 -0.00300000906 1.400893489e-39
-0.04212545969 0.009447955577 0.3930000186 1.428344225e-38
-0.04142661715 0.009461588815 0.3940000057 1.428344225e-38
-0.04072558551 0.009475222052 0.3949999928 1.419124662e-38
-0.03996486211 0.009475222052 0.3949999928 1.38224641e-38
-0.0391477306 0.009461588815 0.3940000057 1.409905099e-38
-0.03838810175 0.009461588815 0.3940000057 1.419124662e-38
-0.0376284729 0.009461588815 0.3940000057 1.428344225e-38
-0.03686884405 0.009461588815 0.3940000057 1.419124662e-38
-0.0361092152 0.009461588815 0.3940000057 1.382318437e-38
-0.03534958635 0.009461588815 0.3940000057 1.400757563e-38
-0.03449027293 0.009434321527 0.3919999719 1.428416252e-38
-0.03373283325 0.009434321527 0.3919999719 1.391538e-38
-0.03297539357 0.009434321527 0.3919999719 1.39153772e-38
-0.03221795389 0.009434321527 0.3919999719 1.400757283e-38
-0.03146051421 0.009434321527 0.3919999719 1.400757283e-38
-0.03070307453 0.009434321527 0.3919999719 1.409976846e-38
-0.02994563485 0.009434321527 0.3919999719 1.410012439e-38
-0.02918819516 0.009434321527 0.3919999719 1.446890691e-38
-0.02843075548 0.009434321527 0.3919999719 1.474585673e-38
-0.0276733158 0.009434321527 0.3919999719 1.474585673e-38
-0.02691587612 0.009434321527 0.3919999719 1.198359058e-38
-0.02615843644 0.009434321527 0.3919999719 7.742591602e-39
-0.02540099676 0.009434321527 0.3919999719 7.469604649e-39
-0.02464355708 0.009434321527 0.3919999719 7.653995908e-39
-0.02388611739 0.009434321527 0.3919999719 6.736714341e-39
-0.02312867771 0.009434321527 0.3919999719 6.644518711e-39
-0.02237123803 0.009434321527 0.3919999719 6.553043349e-39
-0.02161379835 0.009434321527 0.3919999719 6.368652089e-39
-0.02085635867 0.009434321527 0.3919999719 6.00094857e-39
-0.02009891899 0.009434321527 0.3919999719 6.00094857e-39
-0.01934147931 0.009434321527 0.3919999719 5.726159546e-39
-0.01858403962 0.009434321527 0.3919999719 6.002746436e-39
-0.01782659994 0.009434321527 0.3919999719 4.627364986e-39
-0.01706916026 0.009434321527 0.3919999719 5.549321285e-39
-0.01631172058 0.009434321527 0.3919999719 6.662511384e-39
-0.0155542809 0.009434321527 0.3919999719 6.109337605e-39
-0.01479684122 0.009434321527 0.3919999719 5.65124613e-39
-0.01403940154 0.009434321527 0.3919999719 5.282463611e-39
-0.01328196185 0.009434321527 0.3919999719 5.098795421e-39
-0.01252452217 0.009434321527 0.3919999719 5.6519692e-39
-0.01176708249 0.009434321527 0.3919999719 5.6508902e-39
-0.01100964281 0.009434321527 0.3919999719 5.55869457e-39
-0.01025220313 0.009434321527 0.3919999719 5.282107681e-39
-0.009494763448 0.009434321527 0.3919999719 4.821129531e-39
-0.008737323766 0.009434321527 0.3919999719 5.188114185e-39
-0.007979884085 0.009434321527 0.3919999719 5.741287964e-39
-0.007222444403 0.009434321527 0.3919999719 6.018230784e-39
-0.006465004722 0.009434321527 0.3919999719 5.833839524e-39
-0.005707565041 0.009434321527 0.3919999719 5.742722894e-39
-0.004950125359 0.009434321527 0.3919999719 5.834918524e-39
-0.004192685678 0.009434321527 0.3919999719 6.112224279e-39
-0.003435245996 0.009434321527 0.3919999719 5.74344176e-39
-0.002677806315 0.009434321527 0.3919999719 5.65124613e-39
-0.001920366634 0.009434321527 0.3919999719 5.5590505e-39
-0.001162926952 0.009434321527 0.3919999719 5.5590505e-39
-0.0004054872708 0.009434321527 0.3919999719 6.573202429e-39
0.0003519524105 0.009434321527 0.3919999719 6.112224279e-39
0.001109392092 0.009434321527 0.3919999719 5.74344176e-39
0.001866831773 0.009434321527 0.3919999719 5.5590505e-39
0.002624271455 0.009434321527 0.3919999719 5.65124613e-39
0.003381711136 0.009434321527 0.3919999719 5.65124613e-39
0.001758541024 0.004008223467 -0.006000000238 5.65124613e-39
0.002080343445 0.004008223467 -0.006000000238 5.65124613e-39
0.002402145866 0.004008223467 -0.006000000238 5.65124613e-39
0.002723948287 0.004008223467 -0.006000000238 5.65124613e-39
0.003045750708 0.004008223467 -0.006000000238 5.282463611e-39
0.003367553128 0.004008223467 -0.006000000238 5.559047698e-39
0.003689355549 0.004008223467 -0.006000000238 5.835634587e-39
0.00401115797 0.004008223467 -0.006000000238 5.743438957e-39
0.004347698162 0.004021856705 -0.005000013113 5.743438957e-39
0.004670595134 0.004021856705 -0.005000013113 5.651243327e-39
0.004993492107 0.004021856705 -0.005000013113 5.651243327e-39
0.00531638908 0.004021856705 -0.005000013113 5.65124613e-39
0.005639286053 0.004021856705 -0.005000013113 5.5590505e-39
0.005962183025 0.004021856705 -0.005000013113 5.282463611e-39
0.006285079998 0.004021856705 -0.005000013113 5.46685487e-39
0.006607976971 0.004021856705 -0.005000013113 5.83563739e-39
0.006930873944 0.004021856705 -0.005000013113 5.83563739e-39
0.007253770917 0.004021856705 -0.005000013113 5.5590505e-39
0.007576667889 0.004021856705 -0.005000013113 5.74344176e-39
0.007899564862 0.004021856705 -0.005000013113 5.834915721e-39
0.008222461835 0.004021856705 -0.005000013113 5.927111351e-39
0.008545358808 0.004021856705 -0.005000013113 6.3880895e-39
0.00886825578 0.004021856705 -0.005000013113 5.373937572e-39
0.009191152753 0.004021856705 -0.005000013113 5.742720091e-39
0.009514049726 0.004021856705 -0.005000013113 5.927111351e-39
0.009836946699 0.004021856705 -0.005000013113 6.201900375e-39
0.01015984367 0.004021856705 -0.005000013113 6.478487264e-39
0.01048274064 0.004021856705 -0.005000013113 6.660363193e-39
0.01080563762 0.004021856705 -0.005000013113 6.660363193e-39
0.01112853459 0.004021856705 -0.005000013113 6.842233517e-39
0.01145143156 0.004021856705 -0.005000013113 4.90612529e-39
0.01177432854 0.004021856705 -0.005000013113 4.443705204e-39
0.01209722551 0.004021856705 -0.005000013113 3.152966386e-39
0.01242012248 0.004021856705 -0.005000013113 1.768234072e-39
0.01274301945 0.004021856705 -0.005000013113 1.215060293e-39
0.01306591643 0.004021856705 -0.005000013113 1.398372553e-39
0.0133888134 0.004021856705 -0.005000013113 2.043741962e-39
0.01371171037 0.004021856705 -0.005000013113 2.320328852e-39
0.01412975742 0.004049123587 -0.00300000906 2.504720111e-39
-0.04212545969 0.01020634158 0.3930000186 1.446783071e-38
-0.04142661715 0.01022106915 0.3940000057 1.437563508e-38
-0.04072558551 0.01023579673 0.3949999928 1.409904819e-38
-0.03996486211 0.01023579673 0.3949999928 1.363807004e-38
-0.0391477306 0.01022106915 0.3940000057 1.400685536e-38
-0.03838810175 0.01022106915 0.3940000057 1.400685536e-38
-0.0376284729 0.01022106915 0.3940000057 1.419124662e-38
-0.03686884405 0.01022106915 0.3940000057 1.428344225e-38
-0.0361092152 0.01022106915 0.3940000057 1.363879311e-38
-0.03534958635 0.01022106915 0.3940000057 1.336220622e-38
-0.03449027293 0.01019161312 0.3919999719 1.419196689e-38
-0.03373283325 0.01019161312 0.3919999719 1.382318437e-38
-0.03297539357 0.01019161312 0.3919999719 1.382318157e-38
-0.03221795389 0.01019161312 0.3919999719 1.39153772e-38
-0.03146051421 0.01019161312 0.3919999719 1.400792876e-38
-0.03070307453 0.01019161312 0.3919999719 1.419232002e-38
-0.02994563485 0.01019161312 0.3919999719 1.391573313e-38
-0.02918819516 0.01019161312 0.3919999719 1.391573313e-38
-0.02843075548 0.01019161312 0.3919999719 1.391645199e-38
-0.0276733158 0.01019161312 0.3919999719 1.474621266e-38
-0.02691587612 0.01019161312 0.3919999719 1.226017466e-38
-0.02615843644 0.01019161312 0.3919999719 7.37380628e-39
-0.02540099676 0.01019161312 0.3919999719 7.377409019e-39
-0.02464355708 0.01019161312 0.3919999719 7.653995908e-39
-0.02388611739 0.01019161312 0.3919999719 6.552323082e-39
-0.02312867771 0.01019161312 0.3919999719 6.552323082e-39
-0.02237123803 0.01019161312 0.3919999719 6.461926719e-39
-0.02161379835 0.01019161312 0.3919999719 5.90875294e-39
-0.02085635867 0.01019161312 0.3919999719 5.817276176e-39
-0.02009891899 0.01019161312 0.3919999719 5.909471806e-39
-0.01934147931 0.01019161312 0.3919999719 5.726159546e-39
-0.01858403962 0.01019161312 0.3919999719 5.357377026e-39
-0.01782659994 0.01019161312 0.3919999719 4.348259963e-39
-0.01706916026 0.01019161312 0.3919999719 4.809238113e-39
-0.01631172058 0.01019161312 0.3919999719 6.569236754e-39
-0.0155542809 0.01019161312 0.3919999719 6.477041124e-39
-0.01479684122 0.01019161312 0.3919999719 5.651243327e-39
-0.01403940154 0.01019161312 0.3919999719 5.559047698e-39
-0.01328196185 0.01019161312 0.3919999719 5.65232513e-39
-0.01252452217 0.01019161312 0.3919999719 5.65232513e-39
-0.01176708249 0.01019161312 0.3919999719 5.6508902e-39
-0.01100964281 0.01019161312 0.3919999719 5.6508902e-39
-0.01025220313 0.01019161312 0.3919999719 5.742366964e-39
-0.009494763448 0.01019161312 0.3919999719 5.650171334e-39
-0.008737323766 0.01019161312 0.3919999719 6.110070484e-39
-0.007979884085 0.01019161312 0.3919999719 6.110070484e-39
-0.007222444403 0.01019161312 0.3919999719 6.110426413e-39
-0.006465004722 0.01019161312 0.3919999719 5.833839524e-39
-0.005707565041 0.01019161312 0.3919999719 5.650527264e-39
-0.002103088025 0.004329962974 -0.006000000238 5.650527264e-39
-0.001781285605 0.004329962974 -0.006000000238 5.46685487e-39
-0.001459483184 0.004329962974 -0.006000000238 5.282463611e-39
-0.001137680763 0.004329962974 -0.006000000238 5.5590505e-39
-0.0008158783422 0.004329962974 -0.006000000238 5.65124613e-39
-0.0004940759214 0.004329962974 -0.006000000238 5.46685487e-39
-0.0001722735005 0.004329962974 -0.006000000238 5.190267981e-39
0.0001495289203 0.004329962974 -0.006000000238 6.296615539e-39
0.0004713313411 0.004329962974 -0.006000000238 5.74344176e-39
0.0007931337619 0.004329962974 -0.006000000238 5.65124613e-39
0.001114936183 0.004329962974 -0.006000000238 5.5590505e-39
0.001436738604 0.004329962974 -0.006000000238 5.65124613e-39
0.001758541024 0.004329962974 -0.006000000238 5.74344176e-39
0.002080343445 0.004329962974 -0.006000000238 5.65124613e-39
0.002402145866 0.004329962974 -0.006000000238 5.46685487e-39
0.002723948287 0.004329962974 -0.006000000238 5.65124613e-39
0.003045750708 0.004329962974 -0.006000000238 5.83563739e-39
0.003367553128 0.004329962974 -0.006000000238 5.651243327e-39
0.003689355549 0.004329962974 -0.006000000238 5.835634587e-39
0.00401115797 0.004329962974 -0.006000000238 5.743438957e-39
0.004332960391 0.004329962974 -0.006000000238 5.651243327e-39
0.004654762812 0.004329962974 -0.006000000238 5.651243327e-39
0.004976565232 0.004329962974 -0.006000000238 5.651243327e-39
0.005298367653 0.004329962974 -0.006000000238 5.743438957e-39
0.005639286053 0.00434469055 -0.005000013113 5.651243327e-39
0.005962183025 0.00434469055 -0.005000013113 5.651243327e-39
0.006285079998 0.00434469055 -0.005000013113 5.743438957e-39
0.006607976971 0.00434469055 -0.005000013113 5.651243327e-39
0.006930873944 0.00434469055 -0.005000013113 5.559047698e-39
0.007253770917 0.00434469055 -0.005000013113 5.743438957e-39
0.007576667889 0.00434469055 -0.005000013113 5.835634587e-39
0.007899564862 0.00434469055 -0.005000013113 5.559047698e-39
0.008222461835 0.00434469055 -0.005000013113 5.651243327e-39
0.008545358808 0.00434469055 -0.005000013113 6.110423611e-39
0.00886825578 0.00434469055 -0.005000013113 6.3870105e-39
0.009191152753 0.00434469055 -0.005000013113 7.122057406e-39
0.009514049726 0.00434469055 -0.005000013113 6.845470516e-39
0.009836946699 0.00434469055 -0.005000013113 6.750037887e-39
0.01015984367 0.00434469055 -0.005000013113 5.828081588e-39
0.01048274064 0.00434469055 -0.005000013113 4.627740534e-39
0.01080563762 0.00434469055 -0.005000013113 3.152610456e-39
0.01112853459 0.00434469055 -0.005000013113 2.504720111e-39
0.01145143156 0.00434469055 -0.005000013113 1.582763813e-39
0.01177432854 0.00434469055 -0.005000013113 1.213261026e-39
0.01209722551 0.00434469055 -0.005000013113 1.397652286e-39
0.01242012248 0.00434469055 -0.005000013113 2.043021695e-39
0.01274301945 0.00434469055 -0.005000013113 2.411804214e-39
0.01311020842 0.004359418564 -0.003999996185 2.503280978e-39
0.01343419998 0.004359418564 -0.003999996185 2.503280978e-39
0.01375819154 0.004359418564 -0.003999996185 2.595476608e-39
0.01408218309 0.004359418564 -0.003999996185 2.779867868e-39
-0.04230781863 0.01101219332 0.39599998 1.465222197e-38
-0.04154600068 0.01101219332 0.39599998 1.446783071e-38
-0.04090138064 0.01104383809 0.3980000138 1.446783071e-38
-0.04013737351 0.01104383809 0.3980000138 1.400685256e-38
-0.03937336639 0.01104383809 0.3980000138 1.409904819e-38
-0.03860935926 0.01104383809 0.3980000138 1.409904819e-38
-0.03784535214 0.01104383809 0.3980000138 1.419124382e-38
-0.03713446947 0.01105966 0.399000001 1.437563508e-38
-0.03621327499 0.01101219332 0.39599998 1.474513787e-38
-0.03545145704 0.01101219332 0.39599998 1.48373335e-38
-0.03468963909 0.01101219332 0.39599998 1.456074661e-38
-0.03392782113 0.01101219332 0.39599998 1.400757283e-38
-0.03316600318 0.01101219332 0.39599998 1.391538e-38
-0.03240418522 0.01101219332 0.39599998 1.391538e-38
-0.03164236727 0.01101219332 0.39599998 1.39153772e-38
-0.03088054931 0.01101219332 0.39599998 1.39153772e-38
-0.03011873136 0.01101219332 0.39599998 1.391573313e-38
-0.0293569134 0.01101219332 0.39599998 1.391573313e-38
-0.02859509545 0.01101219332 0.39599998 1.400792876e-38
-0.02783327749 0.01101219332 0.39599998 1.47454938e-38
-0.02707145954 0.01101219332 0.39599998 1.189139214e-38
-0.02630964159 0.01101219332 0.39599998 7.37380628e-39
-0.02554782363 0.01101219332 0.39599998 7.008626499e-39
-0.02478600568 0.01101219332 0.39599998 7.377409019e-39
-0.02402418772 0.01101219332 0.39599998 6.275736192e-39
-0.02326236977 0.01101219332 0.39599998 6.367931822e-39
-0.02250055181 0.01101219332 0.39599998 6.00094857e-39
-0.02173873386 0.01101219332 0.39599998 6.00094857e-39
-0.0209769159 0.01101219332 0.39599998 5.909471806e-39
-0.02021509795 0.01101219332 0.39599998 5.909471806e-39
-0.01945328 0.01101219332 0.39599998 5.634319846e-39
-0.01869146204 0.01101219332 0.39599998 5.449928586e-39
-0.01792964409 0.01101219332 0.39599998 4.438657727e-39
-0.01716782613 0.01101219332 0.39599998 4.991831506e-39
-0.01640600818 0.01101219332 0.39599998 5.091587142e-39
-0.01564419022 0.01101219332 0.39599998 6.566717219e-39
-0.01488237227 0.01101219332 0.39599998 5.097350682e-39
-0.01412055431 0.01101219332 0.39599998 5.834915721e-39
-0.01335873636 0.01101219332 0.39599998 5.37573824e-39
-0.0125969184 0.01101219332 0.39599998 5.5601295e-39
-0.01183510045 0.01101219332 0.39599998 5.5590505e-39
-0.0110732825 0.01101219332 0.39599998 5.5590505e-39
-0.01031146454 0.01101219332 0.39599998 5.742722894e-39
-0.009549646587 0.01101219332 0.39599998 5.834918524e-39
-0.008787828632 0.01101219332 0.39599998 6.110426413e-39
-0.008026010678 0.01101219332 0.39599998 6.018230784e-39
-0.007264192723 0.01101219332 0.39599998 6.018230784e-39
-0.006502374769 0.01101219332 0.39599998 5.833839524e-39
-0.002424890446 0.00465170248 -0.006000000238 5.742722894e-39
-0.002103088025 0.00465170248 -0.006000000238 5.281744744e-39
-0.001781285605 0.00465170248 -0.006000000238 5.83563739e-39
-0.001459483184 0.00465170248 -0.006000000238 6.112224279e-39
-0.001137680763 0.00465170248 -0.006000000238 5.65124613e-39
-0.0008158783422 0.00465170248 -0.006000000238 5.74344176e-39
-0.0004940759214 0.00465170248 -0.006000000238 5.74344176e-39
-0.0001722735005 0.00465170248 -0.006000000238 5.65124613e-39
0.0001495289203 0.00465170248 -0.006000000238 5.74344176e-39
0.0004713313411 0.00465170248 -0.006000000238 5.74344176e-39
0.0007931337619 0.00465170248 -0.006000000238 5.5590505e-39
0.001114936183 0.00465170248 -0.006000000238 5.65124613e-39
0.001436738604 0.00465170248 -0.006000000238 5.65124613e-39
0.001758541024 0.00465170248 -0.006000000238 5.5590505e-39
0.002080343445 0.00465170248 -0.006000000238 5.46685487e-39
0.002402145866 0.00465170248 -0.006000000238 5.5590505e-39
0.002723948287 0.00465170248 -0.006000000238 5.5590505e-39
0.003045750708 0.00465170248 -0.006000000238 5.74344176e-39
0.003367553128 0.00465170248 -0.006000000238 5.65124613e-39
0.003689355549 0.00465170248 -0.006000000238 5.83563739e-39
0.00401115797 0.00465170248 -0.006000000238 6.204417107e-39
0.004332960391 0.00465170248 -0.006000000238 6.481003996e-39
0.004654762812 0.00465170248 -0.006000000238 5.927111351e-39
0.004976565232 0.00465170248 -0.006000000238 5.373937572e-39
0.005298367653 0.00465170248 -0.006000000238 5.834915721e-39
0.005639286053 0.004667524394 -0.005000013113 5.834915721e-39
0.005941972495 0.00465170248 -0.006000000238 5.559047698e-39
0.006263774916 0.00465170248 -0.006000000238 5.927830217e-39
0.006585577337 0.00465170248 -0.006000000238 5.466852068e-39
0.006907379757 0.00465170248 -0.006000000238 5.190265178e-39
0.007229182178 0.00465170248 -0.006000000238 5.743438957e-39
0.007576667889 0.004667524394 -0.005000013113 5.835634587e-39
0.007899564862 0.004667524394 -0.005000013113 6.017509115e-39
0.008222461835 0.004667524394 -0.005000013113 7.123856673e-39
0.008545358808 0.004667524394 -0.005000013113 7.2128111e-39
0.00886825578 0.004667524394 -0.005000013113 6.106463541e-39
0.009191152753 0.004667524394 -0.005000013113 5.272386873e-39
0.009514049726 0.004667524394 -0.005000013113 3.059691757e-39
0.009836946699 0.004667524394 -0.005000013113 2.596915741e-39
0.01015984367 0.004667524394 -0.005000013113 2.043741962e-39
0.01048274064 0.004667524394 -0.005000013113 1.581324679e-39
0.01080563762 0.004667524394 -0.005000013113 2.226694088e-39
0.01112853459 0.004667524394 -0.005000013113 2.042302829e-39
0.01145143156 0.004667524394 -0.005000013113 2.226694088e-39
0.01177432854 0.004667524394 -0.005000013113 2.503278175e-39
0.01213823375 0.004683346779 -0.003999996185 2.595473805e-39
0.01246222531 0.004683346779 -0.003999996185 2.870981695e-39
0.01278621686 0.004683346779 -0.003999996185 2.686590435e-39
0.01311020842 0.004683346779 -0.003999996185 2.595473805e-39
0.01343419998 0.004683346779 -0.003999996185 2.595473805e-39
0.01375819154 0.004683346779 -0.003999996185 2.687669435e-39
0.01408218309 0.004683346779 -0.003999996185 2.779865065e-39
-0.0424901812 0.0118246121 0.399000001 1.437563508e-38
-0.04172507952 0.0118246121 0.399000001 1.446783071e-38
-0.04107717227 0.0118584446 0.4009999752 1.437563508e-38
-0.04025237883 0.01184152835 0.3999999881 1.419124382e-38
-0.0394861826 0.01184152835 0.3999999881 1.38224613e-38
-0.03871998637 0.01184152835 0.3999999881 1.38224613e-38
-0.03795379015 0.01184152835 0.3999999881 1.419124382e-38
-0.03713446947 0.0118246121 0.399000001 1.428343945e-38
-0.03631733789 0.01180769585 0.3980000138 1.400757283e-38
-0.03555333077 0.01180769585 0.3980000138 1.428415972e-38
-0.03478932365 0.01180769585 0.3980000138 1.428415972e-38
-0.03402531652 0.01180769585 0.3980000138 1.409976846e-38
-0.0332613094 0.01180769585 0.3980000138 1.409977126e-38
-0.03249730228 0.01180769585 0.3980000138 1.409977126e-38
-0.03173329515 0.01180769585 0.3980000138 1.400757283e-38
-0.03096928803 0.01180769585 0.3980000138 1.409976846e-38
-0.0302052809 0.01180769585 0.3980000138 1.400792876e-38
-0.02944127378 0.01180769585 0.3980000138 1.428451565e-38
-0.02867726666 0.01180769585 0.3980000138 1.465401703e-38
-0.02791325953 0.01180769585 0.3980000138 1.502279955e-38
-0.02714925241 0.01180769585 0.3980000138 1.29048238e-38
-0.02638524529 0.01180769585 0.3980000138 7.465281643e-39
-0.02562123816 0.01180769585 0.3980000138 6.36469202e-39
-0.02485723104 0.01180769585 0.3980000138 6.825670169e-39
-0.02409322391 0.01180769585 0.3980000138 6.275736192e-39
-0.02332921679 0.01180769585 0.3980000138 6.275736192e-39
-0.02256520967 0.01180769585 0.3980000138 6.185339829e-39
-0.02180120254 0.01180769585 0.3980000138 6.369731089e-39
-0.02103719542 0.01180769585 0.3980000138 5.910550806e-39
-0.0202731883 0.01180769585 0.3980000138 5.726159546e-39
-0.01950918117 0.01180769585 0.3980000138 5.634319846e-39
-0.01874517405 0.01180769585 0.3980000138 6.095297995e-39
-0.01798116693 0.01180769585 0.3980000138 5.544642349e-39
-0.0172171598 0.01180769585 0.3980000138 5.17585983e-39
-0.01645315268 0.01180769585 0.3980000138 3.431701466e-39
-0.01568914555 0.01180769585 0.3980000138 7.396113551e-39
-0.01492513843 0.01180769585 0.3980000138 5.649082525e-39
-0.01416113131 0.01180769585 0.3980000138 5.649082525e-39
-0.01339712418 0.01180769585 0.3980000138 5.373937572e-39
-0.01263311706 0.01180769585 0.3980000138 5.558328831e-39
-0.01186910994 0.01180769585 0.3980000138 5.650527264e-39
-0.01110510281 0.01180769585 0.3980000138 5.650527264e-39
-0.01034109569 0.01180769585 0.3980000138 5.373940374e-39
-0.009577088565 0.01180769585 0.3980000138 5.742722894e-39
-0.008813081442 0.01180769585 0.3980000138 5.834918524e-39
-0.008049074318 0.01180769585 0.3980000138 5.742722894e-39
-0.007285067194 0.01180769585 0.3980000138 5.097353485e-39
-0.002737350495 0.004956525735 -0.006999987364 5.281744744e-39
-0.002416642626 0.004956525735 -0.006999987364 5.927114154e-39
-0.002095934757 0.004956525735 -0.006999987364 5.189549115e-39
-0.001775226888 0.004956525735 -0.006999987364 5.558331634e-39
-0.001454519019 0.004956525735 -0.006999987364 5.650527264e-39
-0.00113381115 0.004956525735 -0.006999987364 5.373940374e-39
-0.0008158783422 0.004973441987 -0.006000000238 5.650527264e-39
-0.0004940759214 0.004973441987 -0.006000000238 5.65124613e-39
-0.0001722735005 0.004973441987 -0.006000000238 5.65124613e-39
0.0001495289203 0.004973441987 -0.006000000238 5.65124613e-39
0.0004713313411 0.004973441987 -0.006000000238 5.65124613e-39
0.0007931337619 0.004973441987 -0.006000000238 5.65124613e-39
0.001114936183 0.004973441987 -0.006000000238 5.74344176e-39
0.001436738604 0.004973441987 -0.006000000238 5.74344176e-39
0.001758541024 0.004973441987 -0.006000000238 5.65124613e-39
0.002080343445 0.004973441987 -0.006000000238 5.5590505e-39
0.002402145866 0.004973441987 -0.006000000238 5.5590505e-39
0.002723948287 0.004973441987 -0.006000000238 5.74344176e-39
0.003045750708 0.004973441987 -0.006000000238 5.65124613e-39
0.003367553128 0.004973441987 -0.006000000238 5.46685487e-39
0.003689355549 0.004973441987 -0.006000000238 6.204419909e-39
0.00401115797 0.004973441987 -0.006000000238 5.835634587e-39
0.004332960391 0.004973441987 -0.006000000238 5.651243327e-39
0.004654762812 0.004973441987 -0.006000000238 5.651243327e-39
0.004976565232 0.004973441987 -0.006000000238 5.282460808e-39
0.005298367653 0.004973441987 -0.006000000238 5.190265178e-39
0.005620170074 0.004973441987 -0.006000000238 6.481003996e-39
0.005941972495 0.004973441987 -0.006000000238 6.48064106e-39
0.006263774916 0.004973441987 -0.006000000238 6.66503232e-39
0.006585577337 0.004973441987 -0.006000000238 6.571038824e-39
0.006907379757 0.004973441987 -0.006000000238 6.847625713e-39
0.007229182178 0.004973441987 -0.006000000238 6.845826446e-39
0.007550984599 0.004973441987 -0.006000000238 5.186305109e-39
0.00787278702 0.004973441987 -0.006000000238 4.722810227e-39
0.008194589441 0.004973441987 -0.006000000238 3.708658299e-39
0.008545358808 0.004990358239 -0.005000013113 2.782383198e-39
0.00886825578 0.004990358239 -0.005000013113 1.8604269e-39
0.009191152753 0.004990358239 -0.005000013113 2.317807916e-39
0.009514049726 0.004990358239 -0.005000013113 2.317807916e-39
0.009836946699 0.004990358239 -0.005000013113 2.225612286e-39
0.01015984367 0.004990358239 -0.005000013113 2.502199176e-39
0.01048274064 0.004990358239 -0.005000013113 2.778788868e-39
0.01080563762 0.004990358239 -0.005000013113 2.778788868e-39
0.01112853459 0.004990358239 -0.005000013113 2.410006348e-39
0.01145143156 0.004990358239 -0.005000013113 2.686593238e-39
0.01177432854 0.004990358239 -0.005000013113 2.686590435e-39
0.01213823375 0.005007274994 -0.003999996185 2.686590435e-39
0.01246222531 0.005007274994 -0.003999996185 2.686590435e-39
0.01278621686 0.005007274994 -0.003999996185 2.686590435e-39
0.01311020842 0.005007274994 -0.003999996185 2.317807916e-39
0.01343419998 0.005007274994 -0.003999996185 2.225612286e-39
0.01380467131 0.005024191246 -0.00300000906 2.686590435e-39
0.01412975742 0.005024191246 -0.00300000906 2.778786065e-39
-0.04267254377 0.01264359703 0.4020000219 1.419196409e-38
-0.04184446305 0.01262558537 0.4009999752 1.428415972e-38
-0.04107717227 0.01262558537 0.4009999752 1.419196409e-38
-0.04025237883 0.01260757478 0.3999999881 1.400757283e-38
-0.0394861826 0.01260757478 0.3999999881 1.39153772e-38
-0.03888593034 0.01266160762 0.4030000091 1.382318157e-38
-0.03811645039 0.01266160762 0.4030000091 1.39153772e-38
-0.03713446947 0.01258956419 0.399000001 1.382318157e-38
-0.03631733789 0.0125715536 0.3980000138 1.345439905e-38
-0.03555333077 0.0125715536 0.3980000138 1.382318157e-38
-0.03478932365 0.0125715536 0.3980000138 1.400757563e-38
-0.03402531652 0.0125715536 0.3980000138 1.400757563e-38
-0.0332613094 0.0125715536 0.3980000138 1.409977126e-38
-0.03249730228 0.0125715536 0.3980000138 1.409977126e-38
-0.03173329515 0.0125715536 0.3980000138 1.39153772e-38
-0.03096928803 0.0125715536 0.3980000138 1.409976846e-38
-0.0302052809 0.0125715536 0.3980000138 1.382318157e-38
-0.02944127378 0.0125715536 0.3980000138 1.428415972e-38
-0.02867726666 0.0125715536 0.3980000138 1.45618214e-38
-0.02791325953 0.0125715536 0.3980000138 1.474621266e-38
-0.02714925241 0.0125715536 0.3980000138 1.19828647e-38
-0.02638524529 0.0125715536 0.3980000138 7.37308321e-39
-0.02562123816 0.0125715536 0.3980000138 7.194452689e-39
-0.02485723104 0.0125715536 0.3980000138 6.917865799e-39
-0.02409322391 0.0125715536 0.3980000138 6.275736192e-39
-0.02332921679 0.0125715536 0.3980000138 6.552323082e-39
-0.02256520967 0.0125715536 0.3980000138 6.185339829e-39
-0.02180120254 0.0125715536 0.3980000138 5.44777479e-39
-0.02103719542 0.0125715536 0.3980000138 5.633963916e-39
-0.0202731883 0.0125715536 0.3980000138 5.541768286e-39
-0.01950918117 0.0125715536 0.3980000138 5.358095893e-39
-0.01874517405 0.0125715536 0.3980000138 5.265900263e-39
-0.01798116693 0.0125715536 0.3980000138 5.26697646e-39
-0.0172171598 0.0125715536 0.3980000138 5.635758979e-39
-0.01645315268 0.0125715536 0.3980000138 3.337705168e-39
-0.01568914555 0.0125715536 0.3980000138 6.841139103e-39
-0.01492513843 0.0125715536 0.3980000138 6.110060675e-39
-0.01416113131 0.0125715536 0.3980000138 6.017865045e-39
-0.01339712418 0.0125715536 0.3980000138 5.373937572e-39
-0.01263311706 0.0125715536 0.3980000138 5.650524461e-39
-0.01186910994 0.0125715536 0.3980000138 5.650527264e-39
-0.01110510281 0.0125715536 0.3980000138 5.558331634e-39
-0.01034109569 0.0125715536 0.3980000138 5.373940374e-39
-0.009577088565 0.0125715536 0.3980000138 5.742722894e-39
-0.008813081442 0.0125715536 0.3980000138 5.834918524e-39
-0.008049074318 0.0125715536 0.3980000138 5.742722894e-39
-0.007285067194 0.0125715536 0.3980000138 5.742722894e-39
-0.002737350495 0.005277170904 -0.006999987364 5.834918524e-39
-0.002416642626 0.005277170904 -0.006999987364 5.742722894e-39
-0.002095934757 0.005277170904 -0.006999987364 5.558331634e-39
-0.001775226888 0.005277170904 -0.006999987364 5.373940374e-39
-0.001454519019 0.005277170904 -0.006999987364 5.373940374e-39
-0.00113381115 0.005277170904 -0.006999987364 5.373940374e-39
-0.0008158783422 0.005295181494 -0.006000000238 5.373940374e-39
-0.0004940759214 0.005295181494 -0.006000000238 5.373940374e-39
-0.0001722735005 0.005295181494 -0.006000000238 5.650527264e-39
0.0001495289203 0.005295181494 -0.006000000238 5.5590505e-39
0.0004713313411 0.005295181494 -0.006000000238 5.83563739e-39
0.0007931337619 0.005295181494 -0.006000000238 5.83563739e-39
0.001114936183 0.005295181494 -0.006000000238 5.74344176e-39
0.001436738604 0.005295181494 -0.006000000238 5.65124613e-39
0.001758541024 0.005295181494 -0.006000000238 5.190267981e-39
0.002080343445 0.005295181494 -0.006000000238 5.46649894e-39
0.002402145866 0.005295181494 -0.006000000238 5.282107681e-39
0.002723948287 0.005295181494 -0.006000000238 5.6508902e-39
0.003045750708 0.005295181494 -0.006000000238 5.6508902e-39
0.003367553128 0.005295181494 -0.006000000238 5.74344176e-39
0.003689355549 0.005295181494 -0.006000000238 6.204419909e-39
0.00401115797 0.005295181494 -0.006000000238 5.190265178e-39
0.004332960391 0.005295181494 -0.006000000238 5.466852068e-39
0.004654762812 0.005295181494 -0.006000000238 5.834915721e-39
0.004976565232 0.005295181494 -0.006000000238 6.29589387e-39
0.005298367653 0.005295181494 -0.006000000238 6.478843194e-39
0.005620170074 0.005295181494 -0.006000000238 6.478843194e-39
0.005941972495 0.005295181494 -0.006000000238 6.939098273e-39
0.006263774916 0.005295181494 -0.006000000238 6.293728864e-39
0.006585577337 0.005295181494 -0.006000000238 5.459649394e-39
0.006907379757 0.005295181494 -0.006000000238 3.800128056e-39
0.007229182178 0.005295181494 -0.006000000238 2.876376694e-39
0.007550984599 0.005295181494 -0.006000000238 1.309050986e-39
0.00787278702 0.005295181494 -0.006000000238 9.384677984e-40
0.008194589441 0.005295181494 -0.006000000238 1.030663428e-39
0.008545358808 0.005313192083 -0.005000013113 1.58203794e-39
0.00886825578 0.005313192083 -0.005000013113 1.7664292e-39
0.009191152753 0.005313192083 -0.005000013113 2.225609483e-39
0.009514049726 0.005313192083 -0.005000013113 2.870978892e-39
0.009836946699 0.005313192083 -0.005000013113 3.146846916e-39
0.01015984367 0.005313192083 -0.005000013113 3.239042546e-39
0.01048274064 0.005313192083 -0.005000013113 2.870981695e-39
0.01080563762 0.005313192083 -0.005000013113 2.502199176e-39
0.01116625908 0.005331203209 -0.003999996185 2.778786065e-39
0.01149025063 0.005331203209 -0.003999996185 2.778786065e-39
0.01181424219 0.005331203209 -0.003999996185 2.778786065e-39
0.01213823375 0.005331203209 -0.003999996185 2.686590435e-39
0.01246222531 0.005331203209 -0.003999996185 2.686590435e-39
0.01278621686 0.005331203209 -0.003999996185 2.502199176e-39
0.01311020842 0.005331203209 -0.003999996185 2.041221026e-39
0.01343419998 0.005331203209 -0.003999996185 2.041221026e-39
0.01380467131 0.005349213799 -0.00300000906 2.686590435e-39
0.01412975742 0.005349213799 -0.00300000906 2.686590435e-39
-0.04267254377 0.01341183221 0.4020000219 1.400757283e-38
-0.04190415837 0.01341183221 0.4020000219 1.409976846e-38
-0.04125296739 0.01345004206 0.4039999962 1.39153772e-38
-0.04048239289 0.01345004206 0.4039999962 1.400757283e-38
-0.03965541029 0.01343093713 0.4030000091 1.409976846e-38
-0.03888593034 0.01343093713 0.4030000091 1.363879031e-38
-0.03811645039 0.01343093713 0.4030000091 1.391538e-38
-0.03729384599 0.01341183221 0.4020000219 1.382318437e-38
-0.03647342759 0.01339272614 0.4009999752 1.38224641e-38
-0.03570613681 0.01339272614 0.4009999752 1.409905099e-38
-0.03493884603 0.01339272614 0.4009999752 1.391538e-38
-0.03417155525 0.01339272614 0.4009999752 1.391538e-38
-0.03340426447 0.01339272614 0.4009999752 1.409977126e-38
-0.03263697369 0.01339272614 0.4009999752 1.446855378e-38
-0.03186968291 0.01339272614 0.4009999752 1.382318157e-38
-0.03110239213 0.01339272614 0.4009999752 1.400757283e-38
-0.03033510135 0.01339272614 0.4009999752 1.400757283e-38
-0.02956781057 0.01339272614 0.4009999752 1.409976846e-38
-0.0288005198 0.01339272614 0.4009999752 1.391645199e-38
-0.02803322902 0.01339272614 0.4009999752 1.465401703e-38
-0.02726593824 0.01339272614 0.4009999752 1.272115001e-38
-0.02649864746 0.01339272614 0.4009999752 7.558194737e-39
-0.02573135668 0.01339272614 0.4009999752 6.917862996e-39
-0.0249640659 0.01339272614 0.4009999752 7.286645516e-39
-0.02419677512 0.01339272614 0.4009999752 6.552679011e-39
-0.02342948434 0.01339272614 0.4009999752 6.552679011e-39
-0.02266219356 0.01339272614 0.4009999752 5.909827736e-39
-0.02189490278 0.01339272614 0.4009999752 5.448849586e-39
-0.021127612 0.01339272614 0.4009999752 5.633963916e-39
-0.02036032122 0.01339272614 0.4009999752 5.357377026e-39
-0.01959303044 0.01339272614 0.4009999752 5.358095893e-39
-0.01882573966 0.01339272614 0.4009999752 5.265900263e-39
-0.01805844888 0.01339272614 0.4009999752 4.897838011e-39
-0.0172911581 0.01339272614 0.4009999752 4.990033641e-39
-0.01652386732 0.01339272614 0.4009999752 3.88980275e-39
-0.01575657654 0.01339272614 0.4009999752 5.733715347e-39
-0.01498928576 0.01339272614 0.4009999752 6.846902643e-39
-0.01422199498 0.01339272614 0.4009999752 5.740555085e-39
-0.0134547042 0.01339272614 0.4009999752 5.741997021e-39
-0.01268741342 0.01339272614 0.4009999752 5.741997021e-39
-0.01192012264 0.01339272614 0.4009999752 5.373937572e-39
-0.01115283187 0.01339272614 0.4009999752 5.650524461e-39
-0.01038554109 0.01339272614 0.4009999752 5.742722894e-39
-0.009618250306 0.01339272614 0.4009999752 5.742722894e-39
-0.008850959527 0.01339272614 0.4009999752 5.650527264e-39
-0.008083668747 0.01339272614 0.4009999752 5.650527264e-39
-0.007316377967 0.01339272614 0.4009999752 5.742722894e-39
-0.002737350495 0.005597816073 -0.006999987364 5.742722894e-39
-0.002416642626 0.005597816073 -0.006999987364 5.558331634e-39
-0.002095934757 0.005597816073 -0.006999987364 5.650527264e-39
-0.001775226888 0.005597816073 -0.006999987364 5.650527264e-39
-0.001454519019 0.005597816073 -0.006999987364 5.650527264e-39
-0.00113381115 0.005597816073 -0.006999987364 5.650527264e-39
-0.0008158783422 0.005616921 -0.006000000238 5.742722894e-39
-0.0004940759214 0.005616921 -0.006000000238 5.742722894e-39
-0.0001722735005 0.005616921 -0.006000000238 5.650527264e-39
0.0001495289203 0.005616921 -0.006000000238 5.5590505e-39
0.0004713313411 0.005616921 -0.006000000238 5.282463611e-39
0.0007931337619 0.005616921 -0.006000000238 5.282463611e-39
0.001114936183 0.005616921 -0.006000000238 5.65124613e-39
0.001436738604 0.005616921 -0.006000000238 5.74344176e-39
0.001758541024 0.005616921 -0.006000000238 5.5590505e-39
0.002080343445 0.005616921 -0.006000000238 5.46685487e-39
0.002402145866 0.005616921 -0.006000000238 5.5590505e-39
0.002723948287 0.005616921 -0.006000000238 5.65124613e-39
0.003045750708 0.005616921 -0.006000000238 5.92783302e-39
0.003367553128 0.005616921 -0.006000000238 6.295896673e-39
0.003689355549 0.005616921 -0.006000000238 6.480287933e-39
0.00401115797 0.005616921 -0.006000000238 6.66359739e-39
0.004332960391 0.005616921 -0.006000000238 7.124575539e-39
0.004654762812 0.005616921 -0.006000000238 6.569239557e-39
0.004976565232 0.005616921 -0.006000000238 5.186305109e-39
0.005298367653 0.005616921 -0.006000000238 5.183065307e-39
0.005620170074 0.005616921 -0.006000000238 3.431348339e-39
0.005941972495 0.005616921 -0.006000000238 2.599787002e-39
0.006263774916 0.005616921 -0.006000000238 1.585635073e-39
0.006585577337 0.005616921 -0.006000000238 1.306527248e-39
0.006907379757 0.005616921 -0.006000000238 1.306527248e-39
0.007229182178 0.005616921 -0.006000000238 1.58203794e-39
0.007550984599 0.005616921 -0.006000000238 1.7664292e-39
0.00787278702 0.005616921 -0.006000000238 2.411798609e-39
0.008194589441 0.005616921 -0.006000000238 2.596189869e-39
0.008545358808 0.005636025928 -0.005000013113 2.595471003e-39
0.00886825578 0.005636025928 -0.005000013113 2.503275373e-39
0.009191152753 0.005636025928 -0.005000013113 2.410000743e-39
0.009514049726 0.005636025928 -0.005000013113 2.870978892e-39
0.009836946699 0.005636025928 -0.005000013113 2.870978892e-39
0.01015984367 0.005636025928 -0.005000013113 3.147565782e-39
0.01048274064 0.005636025928 -0.005000013113 2.778786065e-39
0.01080563762 0.005636025928 -0.005000013113 2.133416656e-39
0.01116625908 0.005655131425 -0.003999996185 2.041221026e-39
0.01149025063 0.005655131425 -0.003999996185 2.686590435e-39
0.01181424219 0.005655131425 -0.003999996185 2.778786065e-39
0.01213823375 0.005655131425 -0.003999996185 2.502199176e-39
0.01246222531 0.005655131425 -0.003999996185 2.317807916e-39
0.01278621686 0.005655131425 -0.003999996185 2.502199176e-39
0.01311020842 0.005655131425 -0.003999996185 2.317807916e-39
0.01343419998 0.005655131425 -0.003999996185 2.502199176e-39
0.01375819154 0.005655131425 -0.003999996185 2.502199176e-39
0.01408218309 0.005655131425 -0.003999996185 2.686590435e-39
-0.04285490271 0.01424066518 0.4049999833 1.382318157e-38
-0.04208323366 0.01424066518 0.4049999833 1.39153772e-38
-0.0413115646 0.01424066518 0.4049999833 1.382318157e-38
-0.04053989555 0.01424066518 0.4049999833 1.382318157e-38
-0.0397682265 0.01424066518 0.4049999833 1.382318437e-38
-0.03899655745 0.01424066518 0.4049999833 1.327001059e-38
-0.0382791074 0.01426086444 0.4059999704 1.327001059e-38
-0.03745321934 0.01424066518 0.4049999833 1.354659748e-38
-0.03662952039 0.01422046591 0.4039999962 1.354659748e-38
-0.03585894589 0.01422046591 0.4039999962 1.354659748e-38
-0.03508837139 0.01422046591 0.4039999962 1.382318437e-38
-0.03431779689 0.01422046591 0.4039999962 1.391538e-38
-0.03354722239 0.01422046591 0.4039999962 1.391538e-38
-0.03277664789 0.01422046591 0.4039999962 1.456074941e-38
-0.03200607339 0.01422046591 0.4039999962 1.363879311e-38
-0.03123549888 0.01422046591 0.4039999962 1.400757563e-38
-0.03046492438 0.01422046591 0.4039999962 1.409976846e-38
-0.02969434988 0.01422046591 0.4039999962 1.409976846e-38
-0.02892377538 0.01422046591 0.4039999962 1.419268295e-38
-0.02815320088 0.01422046591 0.4039999962 1.502244362e-38
-0.02738262638 0.01422046591 0.4039999962 1.401188883e-38
-0.02661205188 0.01422046591 0.4039999962 8.203564146e-39
-0.02584147738 0.01422046591 0.4039999962 6.825667366e-39
-0.02507090288 0.01422046591 0.4039999962 6.549080477e-39
-0.02430032838 0.01422046591 0.4039999962 6.092421129e-39
-0.02352975388 0.01422046591 0.4039999962 5.90802987e-39
-0.02275917938 0.01422046591 0.4039999962 6.094218995e-39
-0.02198860488 0.01422046591 0.4039999962 6.094218995e-39
-0.02121803038 0.01422046591 0.4039999962 5.358095893e-39
-0.02044745587 0.01422046591 0.4039999962 5.265900263e-39
-0.01967688137 0.01422046591 0.4039999962 5.265900263e-39
-0.01890630687 0.01422046591 0.4039999962 5.173704633e-39
-0.01813573237 0.01422046591 0.4039999962 4.437938861e-39
-0.01736515787 0.01422046591 0.4039999962 4.345743231e-39
-0.01659458337 0.01422046591 0.4039999962 3.98199838e-39
-0.01582400887 0.01422046591 0.4039999962 4.350780899e-39
-0.01505343437 0.01422046591 0.4039999962 6.017141975e-39
-0.01428285987 0.01422046591 0.4039999962 5.556163825e-39
-0.01351228537 0.01422046591 0.4039999962 5.834192651e-39
-0.01274171087 0.01422046591 0.4039999962 5.741997021e-39
-0.01197113637 0.01422046591 0.4039999962 5.373937572e-39
-0.01120056187 0.01422046591 0.4039999962 5.650524461e-39
-0.01042998737 0.01422046591 0.4039999962 5.834915721e-39
-0.009659412865 0.01422046591 0.4039999962 5.834915721e-39
-0.008888838364 0.01422046591 0.4039999962 5.558331634e-39
-0.003378766232 0.005918461241 -0.006999987364 5.189549115e-39
-0.003058058363 0.005918461241 -0.006999987364 5.650527264e-39
-0.002737350495 0.005918461241 -0.006999987364 5.650527264e-39
-0.002416642626 0.005918461241 -0.006999987364 5.373940374e-39
-0.002095934757 0.005918461241 -0.006999987364 5.558331634e-39
-0.001775226888 0.005918461241 -0.006999987364 5.558331634e-39
-0.001454519019 0.005918461241 -0.006999987364 5.650527264e-39
-0.00113381115 0.005918461241 -0.006999987364 5.742722894e-39
-0.0008131032815 0.005918461241 -0.006999987364 5.742722894e-39
-0.0004923954126 0.005918461241 -0.006999987364 5.742722894e-39
-0.0001722735005 0.005938660507 -0.006000000238 5.742722894e-39
0.0001495289203 0.005938660507 -0.006000000238 5.742722894e-39
0.0004713313411 0.005938660507 -0.006000000238 5.373940374e-39
0.0007931337619 0.005938660507 -0.006000000238 5.46685487e-39
0.001114936183 0.005938660507 -0.006000000238 5.65124613e-39
0.001436738604 0.005938660507 -0.006000000238 6.112224279e-39
0.001758541024 0.005938660507 -0.006000000238 6.204419909e-39
0.002080343445 0.005938660507 -0.006000000238 6.112224279e-39
0.002402145866 0.005938660507 -0.006000000238 6.388811169e-39
0.002723948287 0.005938660507 -0.006000000238 6.84798865e-39
0.003045750708 0.005938660507 -0.006000000238 6.57140176e-39
0.003367553128 0.005938660507 -0.006000000238 5.831318588e-39
0.003689355549 0.005938660507 -0.006000000238 6.015709848e-39
0.00401115797 0.005938660507 -0.006000000238 6.290498871e-39
0.004332960391 0.005938660507 -0.006000000238 5.552933832e-39
0.004654762812 0.005938660507 -0.006000000238 3.430272142e-39
0.004976565232 0.005938660507 -0.006000000238 8.487945058e-40
0.005298367653 0.005938660507 -0.006000000238 1.491641578e-39
0.005620170074 0.005938660507 -0.006000000238 7.540765387e-40
0.005941972495 0.005938660507 -0.006000000238 9.373887986e-40
0.006263774916 0.005938660507 -0.006000000238 1.398366948e-39
0.006585577337 0.005938660507 -0.006000000238 2.318884113e-39
0.006907379757 0.005938660507 -0.006000000238 2.226688483e-39
0.007229182178 0.005938660507 -0.006000000238 2.318884113e-39
0.007550984599 0.005938660507 -0.006000000238 2.226688483e-39
0.007899564862 0.005958859772 -0.005000013113 2.226688483e-39
0.008222461835 0.005958859772 -0.005000013113 2.595471003e-39
0.008545358808 0.005958859772 -0.005000013113 2.318884113e-39
0.00886825578 0.005958859772 -0.005000013113 2.318884113e-39
0.009191152753 0.005958859772 -0.005000013113 2.503275373e-39
0.009514049726 0.005958859772 -0.005000013113 2.595471003e-39
0.009836946699 0.005958859772 -0.005000013113 2.318884113e-39
0.01015984367 0.005958859772 -0.005000013113 2.134492853e-39
0.01048274064 0.005958859772 -0.005000013113 2.318884113e-39
0.01080563762 0.005958859772 -0.005000013113 2.595471003e-39
0.01116625908 0.00597905964 -0.003999996185 2.872060695e-39
0.01149025063 0.00597905964 -0.003999996185 2.595473805e-39
0.01181424219 0.00597905964 -0.003999996185 2.318886916e-39
0.01213823375 0.00597905964 -0.003999996185 2.503278175e-39
0.01246222531 0.00597905964 -0.003999996185 2.502199176e-39
0.01278621686 0.00597905964 -0.003999996185 2.502199176e-39
0.01311020842 0.00597905964 -0.003999996185 2.22489342e-39
0.01343419998 0.00597905964 -0.003999996185 2.40928468e-39
0.01375819154 0.00597905964 -0.003999996185 2.501480309e-39
0.01408218309 0.00597905964 -0.003999996185 2.593675939e-39
-0.02176178152 0.007623208404 0.05800001025 1.354659468e-38
-0.04232200427 0.01509735904 0.4089999914 1.354659468e-38
-0.04154595694 0.01509735904 0.4089999914 1.363879031e-38
-0.04076990962 0.01509735904 0.4089999914 1.354659468e-38
-0.03999386229 0.01509735904 0.4089999914 1.391538e-38
-0.03921781496 0.01509735904 0.4089999914 1.345440185e-38
-0.03849598664 0.01511865265 0.4099999785 1.382318437e-38
-0.03771884476 0.01511865265 0.4099999785 1.382318437e-38
-0.03694170289 0.01511865265 0.4099999785 1.391538e-38
-0.03616456101 0.01511865265 0.4099999785 1.391538e-38
-0.03538741913 0.01511865265 0.4099999785 1.363879311e-38
-0.03461027725 0.01511865265 0.4099999785 1.363879311e-38
-0.03383313537 0.01511865265 0.4099999785 1.382318437e-38
-0.0330559935 0.01511865265 0.4099999785 1.409977126e-38
-0.03227885162 0.01511865265 0.4099999785 1.382318157e-38
-0.03150170974 0.01511865265 0.4099999785 1.382318157e-38
-0.03072456786 0.01511865265 0.4099999785 1.382318157e-38
-0.02994742599 0.01511865265 0.4099999785 1.400757283e-38
-0.02917028411 0.01511865265 0.4099999785 1.437743014e-38
-0.02839314223 0.01511865265 0.4099999785 1.465401703e-38
-0.02761600035 0.01511865265 0.4099999785 1.401189163e-38
