# .PCD v0.7 - Point Cloud Data file format
VERSION 0.7
FIELDS x y z rgb
SIZE 4 4 4 4
TYPE F F F F
COUNT 1 1 1 1
WIDTH 812
HEIGHT 1
VIEWPOINT 0 0 0 1 0 0 0
POINTS 812
DATA ascii
-0.003712100129 0.01172997162 -0.006000000238 1.180136292e-38
-0.003401829185 0.01176986897 -0.005000013113 1.14325804e-38
-0.003078932212 0.01176986897 -0.005000013113 1.087940662e-38
-0.00275603524 0.01176986897 -0.005000013113 1.097160225e-38
-0.002433138267 0.01176986897 -0.005000013113 1.023476028e-38
-0.002117394776 0.01180976751 -0.003999996185 1.005036902e-38
-0.001793403218 0.01180976751 -0.003999996185 1.023476309e-38
-0.001469411661 0.01180976751 -0.003999996185 9.405002417e-39
-0.001145420104 0.01180976751 -0.003999996185 9.497558181e-39
-0.0008242036069 0.01184966486 -0.00300000906 1.005073196e-38
-0.0004991174976 0.01184966486 -0.00300000906 9.589753811e-39
-0.0001740313882 0.01184966486 -0.00300000906 9.497558181e-39
0.0001515633315 0.0118895634 -0.001999992132 9.406441551e-39
0.0004777440254 0.0118895634 -0.001999992132 9.498637181e-39
0.0008039247193 0.0118895634 -0.001999992132 9.406441551e-39
0.001130105413 0.0118895634 -0.001999992132 9.129854661e-39
0.00146117291 0.01192946075 -0.001000005007 9.038740834e-39
0.001788448156 0.01192946075 -0.001000005007 8.393371425e-39
0.00212279952 0.01196935929 1.192092897e-08 8.117503401e-39
0.00245116935 0.01196935929 1.192092897e-08 7.840916512e-39
0.01186859471 0.0133258858 0.03399999142 1.087327734e-38
0.01223417977 0.0133258858 0.03399999142 1.078108171e-38
0.0150680884 0.01324608991 0.03199998736 1.114914397e-38
0.01543148431 0.01324608991 0.03199998736 1.105694834e-38
0.01579488023 0.01324608991 0.03199998736 1.1886709e-38
0.01615827615 0.01324608991 0.03199998736 1.216293996e-38
0.01652167207 0.01324608991 0.03199998736 1.188635307e-38
0.01688506798 0.01324608991 0.03199998736 1.225513559e-38
0.0172484639 0.01324608991 0.03199998736 1.225513559e-38
0.01755881273 0.01320619256 0.03100000024 1.243952685e-38
0.01792111409 0.01320619256 0.03100000024 1.253172248e-38
0.01828341546 0.01320619256 0.03100000024 1.234805149e-38
0.01864571683 0.01320619256 0.03100000024 1.234805149e-38
0.01895059289 0.01316629521 0.03000001311 1.271683401e-38
0.01931179971 0.01316629521 0.03000001311 1.234805149e-38
0.01967300652 0.01316629521 0.03000001311 1.234805149e-38
0.01997350257 0.01312639668 0.02899999619 1.262463838e-38
0.0203336148 0.01312639668 0.02899999619 1.271718994e-38
0.02069372703 0.01312639668 0.02899999619 1.280938557e-38
0.02098984665 0.01308649933 0.02800000906 1.28086653e-38
0.02134886433 0.01308649933 0.02800000906 1.290086093e-38
0.021707882 0.01308649933 0.02800000906 1.299305656e-38
0.02199962141 0.01304660079 0.02699999213 1.28086653e-38
0.0223575445 0.01304660079 0.02699999213 1.299305656e-38
0.02271546759 0.01304660079 0.02699999213 1.317744782e-38
0.02300283077 0.01300670344 0.02600000501 1.354623034e-38
0.02335965931 0.01300670344 0.02600000501 1.354623034e-38
0.02371648785 0.01300670344 0.02600000501 1.336183908e-38
0.02399947061 0.0129668049 0.02499998808 1.345403471e-38
0.02435520457 0.0129668049 0.02499998808 1.354623034e-38
-0.02706243441 0.01258461039 0.007000011206 1.179669379e-38
-0.02672640262 0.01258461039 0.007000011206 1.15201041e-38
-0.02647633184 0.01262560208 0.007999998331 1.170449536e-38
-0.02613920549 0.01262560208 0.007999998331 1.161229973e-38
-0.02580207915 0.01262560208 0.007999998331 1.161229973e-38
-0.0254649528 0.01262560208 0.007999998331 1.142898747e-38
-0.02520940926 0.01266659377 0.008999985456 1.15211831e-38
-0.02487118837 0.01266659377 0.008999985456 1.15211831e-38
-0.02453296747 0.01266659377 0.008999985456 1.133679184e-38
-0.02419474657 0.01266659377 0.008999985456 1.133679184e-38
-0.02385652568 0.01266659377 0.008999985456 1.142898747e-38
-0.02351830478 0.01266659377 0.008999985456 1.15211831e-38
-0.02318008389 0.01266659377 0.008999985456 1.078361806e-38
-0.02284186299 0.01266659377 0.008999985456 1.078361806e-38
-0.02250364209 0.01266659377 0.008999985456 1.096800932e-38
-0.02209368936 0.01262560208 0.007999998331 1.096800932e-38
-0.02175656302 0.01262560208 0.007999998331 1.096800932e-38
-0.02141943668 0.01262560208 0.007999998331 1.06921427e-38
-0.02108231033 0.01262560208 0.007999998331 1.050775144e-38
-0.02074518399 0.01262560208 0.007999998331 1.050775424e-38
-0.02040805764 0.01262560208 0.007999998331 1.059994987e-38
-0.01890478668 0.01274857836 0.01099998951 1.059994707e-38
-0.01856437665 0.01274857836 0.01099998951 1.032336018e-38
-0.01336617275 0.01205171113 -0.006000000238 1.050703117e-38
-0.01304437033 0.01205171113 -0.006000000238 1.078361806e-38
-0.01272256791 0.01205171113 -0.006000000238 1.032336018e-38
-0.01240076549 0.01205171113 -0.006000000238 1.050775144e-38
-0.01207896307 0.01205171113 -0.006000000238 1.050847031e-38
-0.01107575508 0.01201071944 -0.006999987364 1.023188622e-38
-0.01075504722 0.01201071944 -0.006999987364 1.004749496e-38
-0.01043433935 0.01201071944 -0.006999987364 9.863103701e-39
-0.01011363148 0.01201071944 -0.006999987364 1.041627748e-38
-0.009792923609 0.01201071944 -0.006999987364 1.078506e-38
-0.00947221574 0.01201071944 -0.006999987364 1.069286437e-38
-0.009151507871 0.01201071944 -0.006999987364 1.060066874e-38
-0.008830800003 0.01201071944 -0.006999987364 1.060066874e-38
-0.008510092134 0.01201071944 -0.006999987364 1.041627748e-38
-0.008189384265 0.01201071944 -0.006999987364 1.023188622e-38
-0.007868676396 0.01201071944 -0.006999987364 1.050847311e-38
-0.007547968527 0.01201071944 -0.006999987364 9.955299331e-39
-0.007227260658 0.01201071944 -0.006999987364 1.004749496e-38
-0.00690655279 0.01201071944 -0.006999987364 9.956378331e-39
-0.006585844921 0.01201071944 -0.006999987364 1.041735648e-38
-0.006265137052 0.01201071944 -0.006999987364 1.115491872e-38
-0.005944429183 0.01201071944 -0.006999987364 1.281444005e-38
-0.005623721314 0.01201071944 -0.006999987364 1.281444005e-38
-0.005321112234 0.01205171113 -0.006000000238 1.23534619e-38
-0.004999309813 0.01205171113 -0.006000000238 1.226126627e-38
-0.004677507392 0.01205171113 -0.006000000238 1.263004879e-38
-0.004355704971 0.01205171113 -0.006000000238 1.207615194e-38
-0.00403390255 0.01205171113 -0.006000000238 1.235273883e-38
-0.003712100129 0.01205171113 -0.006000000238 1.281371698e-38
-0.003390297709 0.01205171113 -0.006000000238 1.299810824e-38
-0.003078932212 0.01209270282 -0.005000013113 1.281371698e-38
-0.00275603524 0.01209270282 -0.005000013113 1.281371698e-38
-0.002433138267 0.01209270282 -0.005000013113 1.189248376e-38
-0.002110241294 0.01209270282 -0.005000013113 1.161589687e-38
-0.001793403218 0.01213369573 -0.003999996185 1.198467938e-38
-0.001469411661 0.01213369573 -0.003999996185 1.226126627e-38
-0.001145420104 0.01213369573 -0.003999996185 1.226126627e-38
-0.0008242036069 0.01217468741 -0.00300000906 1.23534619e-38
-0.0004991174976 0.01217468741 -0.00300000906 1.299883131e-38
-0.0001740313882 0.01217468741 -0.00300000906 1.253785316e-38
0.0001510547211 0.01217468741 -0.00300000906 1.226126908e-38
0.0004777440254 0.01221568032 -0.001999992132 1.180029093e-38
0.0008039247193 0.01221568032 -0.001999992132 1.180029093e-38
0.001130105413 0.01221568032 -0.001999992132 1.17080953e-38
0.00146117291 0.01225667201 -0.001000005007 1.189320542e-38
0.001788448156 0.01225667201 -0.001000005007 1.207759668e-38
0.00212279952 0.01229766492 1.192092897e-08 1.189320262e-38
0.00245116935 0.01229766492 1.192092897e-08 1.207759388e-38
0.01186859471 0.01369139938 0.03399999142 1.10576686e-38
0.01223417977 0.01369139938 0.03399999142 1.096547297e-38
0.0150680884 0.01360941478 0.03199998736 1.114914397e-38
0.01543148431 0.01360941478 0.03199998736 1.12413396e-38
0.01579488023 0.01360941478 0.03199998736 1.151792648e-38
0.01615827615 0.01360941478 0.03199998736 1.216293996e-38
0.01652167207 0.01360941478 0.03199998736 1.234733122e-38
0.01688506798 0.01360941478 0.03199998736 1.225513559e-38
0.0172484639 0.01360941478 0.03199998736 1.225513559e-38
0.01761185982 0.01360941478 0.03199998736 1.243952685e-38
0.01792111409 0.0135684231 0.03100000024 1.280830937e-38
0.01828341546 0.0135684231 0.03100000024 1.280830937e-38
0.01864571683 0.0135684231 0.03100000024 1.271611374e-38
0.01895059289 0.01352743141 0.03000001311 1.280830937e-38
0.01931179971 0.01352743141 0.03000001311 1.253172248e-38
0.01967300652 0.01352743141 0.03000001311 1.2900505e-38
0.02003421333 0.01352743141 0.03000001311 1.2900505e-38
0.02039542015 0.01352743141 0.03000001311 1.299270063e-38
0.02069372703 0.0134864385 0.02899999619 1.317709189e-38
0.02105383926 0.0134864385 0.02899999619 1.308525219e-38
0.02141395149 0.0134864385 0.02899999619 1.299305656e-38
0.021707882 0.01344544681 0.02800000906 1.308525219e-38
0.02199962141 0.01340445391 0.02699999213 1.317744782e-38
0.0223575445 0.01340445391 0.02699999213 1.336183908e-38
0.02271546759 0.01340445391 0.02699999213 1.308525219e-38
0.02300283077 0.01336346222 0.02600000501 1.345403471e-38
0.02335965931 0.01336346222 0.02600000501 1.345403471e-38
0.02371648785 0.01336346222 0.02600000501 1.336183908e-38
0.02399947061 0.01332246931 0.02499998808 1.345403471e-38
0.02435520457 0.01332246931 0.02499998808 1.354587441e-38
-0.02706243441 0.01292057649 0.007000011206 1.161338153e-38
-0.02672640262 0.01292057649 0.007000011206 1.179669379e-38
-0.02647633184 0.01296266251 0.007999998331 1.170449816e-38
-0.02613920549 0.01296266251 0.007999998331 1.161229973e-38
-0.02580207915 0.01296266251 0.007999998331 1.170449536e-38
-0.02554763016 0.01300474854 0.008999985456 1.15211831e-38
-0.02520940926 0.01300474854 0.008999985456 1.142898747e-38
-0.02487118837 0.01300474854 0.008999985456 1.142898747e-38
-0.02453296747 0.01300474854 0.008999985456 1.142898747e-38
-0.02419474657 0.01300474854 0.008999985456 1.106020495e-38
-0.02385652568 0.01300474854 0.008999985456 1.161337873e-38
-0.02351830478 0.01300474854 0.008999985456 1.142898747e-38
-0.02318008389 0.01300474854 0.008999985456 1.115240058e-38
-0.02284186299 0.01300474854 0.008999985456 1.142898747e-38
-0.02250364209 0.01300474854 0.008999985456 1.142898747e-38
-0.0221654212 0.01300474854 0.008999985456 1.096872959e-38
-0.0218272003 0.01300474854 0.008999985456 1.096872959e-38
-0.02148897941 0.01300474854 0.008999985456 1.096872959e-38
-0.01949272387 0.01325726845 0.01499999762 1.078433833e-38
-0.01902636112 0.01317309515 0.01299999356 1.0600303e-38
-0.01868376195 0.01317309515 0.01299999356 1.0600303e-38
-0.01043433935 0.01233136461 -0.006999987364 1.013969059e-38
-0.01011363148 0.01233136461 -0.006999987364 1.032336018e-38
-0.009792923609 0.01233136461 -0.006999987364 1.096872959e-38
-0.00947221574 0.01233136461 -0.006999987364 1.087653396e-38
-0.009151507871 0.01233136461 -0.006999987364 1.078433833e-38
-0.008830800003 0.01233136461 -0.006999987364 1.041627468e-38
-0.008510092134 0.01233136461 -0.006999987364 1.069286157e-38
-0.008189384265 0.01233136461 -0.006999987364 1.069286157e-38
-0.007868676396 0.01233136461 -0.006999987364 1.07850572e-38
-0.007547968527 0.01233136461 -0.006999987364 1.060066874e-38
-0.007227260658 0.01233136461 -0.006999987364 1.050847311e-38
-0.00690655279 0.01233136461 -0.006999987364 1.023188622e-38
-0.006585844921 0.01233136461 -0.006999987364 1.133823378e-38
-0.006265137052 0.01233136461 -0.006999987364 1.225946841e-38
-0.005944429183 0.01233136461 -0.006999987364 1.272044656e-38
-0.005623721314 0.01233136461 -0.006999987364 1.244457853e-38
-0.005321112234 0.01237345064 -0.006000000238 1.253677416e-38
-0.004999309813 0.01237345064 -0.006000000238 1.318214357e-38
-0.004677507392 0.01237345064 -0.006000000238 1.308994794e-38
-0.004355704971 0.01237345064 -0.006000000238 1.24442156e-38
-0.00403390255 0.01237345064 -0.006000000238 1.225982434e-38
-0.003712100129 0.01237345064 -0.006000000238 1.207543308e-38
-0.003390297709 0.01237345064 -0.006000000238 1.253641123e-38
-0.003078932212 0.01241553666 -0.005000013113 1.262860686e-38
-0.00275603524 0.01241553666 -0.005000013113 1.272080249e-38
-0.002433138267 0.01241553666 -0.005000013113 1.24442156e-38
-0.002110241294 0.01241553666 -0.005000013113 1.216762871e-38
-0.001793403218 0.01245762394 -0.003999996185 1.253641123e-38
-0.001469411661 0.01245762394 -0.003999996185 1.290519375e-38
-0.001145420104 0.01245762394 -0.003999996185 1.244493446e-38
-0.0008242036069 0.01249970997 -0.00300000906 1.244493446e-38
-0.0004991174976 0.01249970997 -0.00300000906 1.327469513e-38
-0.0001740313882 0.01249970997 -0.00300000906 1.281371698e-38
0.0001510547211 0.01249970997 -0.00300000906 1.207579602e-38
0.0004777440254 0.01254179725 -0.001999992132 1.23523829e-38
0.0008039247193 0.01254179725 -0.001999992132 1.225946841e-38
0.001130105413 0.01254179725 -0.001999992132 1.207507715e-38
0.01113742461 0.01405691296 0.03399999142 1.087399621e-38
0.01150300966 0.01405691296 0.03399999142 1.11505831e-38
0.01186859471 0.01405691296 0.03399999142 1.151792648e-38
0.01511347498 0.01401482693 0.03300000429 1.10576686e-38
0.01543148431 0.01397273966 0.03199998736 1.124205986e-38
0.01579488023 0.01397273966 0.03199998736 1.151864675e-38
0.01615827615 0.01397273966 0.03199998736 1.161084238e-38
0.01652167207 0.01397273966 0.03199998736 1.216401616e-38
0.01688506798 0.01397273966 0.03199998736 1.234768715e-38
0.0172484639 0.01397273966 0.03199998736 1.234768715e-38
0.01761185982 0.01397273966 0.03199998736 1.253172248e-38
0.01792111409 0.01393065363 0.03100000024 1.271611374e-38
0.01828341546 0.01393065363 0.03100000024 1.271611374e-38
0.01864571683 0.01393065363 0.03100000024 1.271611374e-38
0.01900801819 0.01393065363 0.03100000024 1.271611374e-38
0.01937031956 0.01393065363 0.03100000024 1.253172248e-38
0.01967300652 0.01388856761 0.03000001311 1.271611374e-38
0.02003421333 0.01388856761 0.03000001311 1.280830937e-38
0.02039542015 0.01388856761 0.03000001311 1.2900505e-38
0.02069372703 0.01384648033 0.02899999619 1.317709189e-38
0.02105383926 0.01384648033 0.02899999619 1.336183908e-38
0.02141395149 0.01384648033 0.02899999619 1.382281723e-38
0.021707882 0.0138043943 0.02800000906 1.354623034e-38
0.02206689968 0.0138043943 0.02800000906 1.308525219e-38
0.02242591736 0.0138043943 0.02800000906 1.308525219e-38
0.02271546759 0.01376230702 0.02699999213 1.336183908e-38
0.02307339069 0.01376230702 0.02699999213 1.345403471e-38
0.02343131378 0.01376230702 0.02699999213 1.336183908e-38
0.02371648785 0.013720221 0.02600000501 1.336183908e-38
0.02407331639 0.013720221 0.02600000501 1.336183908e-38
0.02443014493 0.013720221 0.02600000501 1.317709189e-38
-0.02706243441 0.01325654258 0.007000011206 1.170557716e-38
-0.02681345818 0.01329972295 0.007999998331 1.161230253e-38
-0.02647633184 0.01329972295 0.007999998331 1.170449816e-38
-0.02613920549 0.01329972295 0.007999998331 1.15211831e-38
-0.02580207915 0.01329972295 0.007999998331 1.170557436e-38
-0.02554763016 0.01334290331 0.008999985456 1.170557436e-38
-0.02520940926 0.01334290331 0.008999985456 1.179776999e-38
-0.02487118837 0.01334290331 0.008999985456 1.170557436e-38
-0.02453296747 0.01334290331 0.008999985456 1.161337873e-38
-0.02419474657 0.01334290331 0.008999985456 1.15211831e-38
-0.02385652568 0.01334290331 0.008999985456 1.15211831e-38
-0.02359441709 0.01338608496 0.01000000238 1.142898747e-38
-0.02325510161 0.01338608496 0.01000000238 1.142898747e-38
-0.02291578613 0.01338608496 0.01000000238 1.142898747e-38
-0.02257647065 0.01338608496 0.01000000238 1.133679184e-38
-0.02223715517 0.01338608496 0.01000000238 1.115312085e-38
-0.02189783969 0.01338608496 0.01000000238 1.115312085e-38
-0.02155852421 0.01338608496 0.01000000238 1.096872959e-38
-0.01949272387 0.01360198935 0.01499999762 1.087653396e-38
-0.01914793556 0.01360198935 0.01499999762 1.087653396e-38
-0.01880314726 0.01360198935 0.01499999762 1.087653396e-38
-0.01454821493 0.01381789374 0.01999999285 1.050703117e-38
-0.0141979538 0.01381789374 0.01999999285 1.078361806e-38
-0.01384769267 0.01381789374 0.01999999285 1.078361806e-38
-0.01353961173 0.01386107539 0.02100000978 1.087581369e-38
-0.01318825601 0.01386107539 0.02100000978 1.078433833e-38
-0.005321112234 0.01269519014 -0.006000000238 1.290411755e-38
-0.004999309813 0.01269519014 -0.006000000238 1.290411755e-38
-0.004677507392 0.01269519014 -0.006000000238 1.290411755e-38
-0.004355704971 0.01269519014 -0.006000000238 1.281227785e-38
-0.00403390255 0.01269519014 -0.006000000238 1.272008222e-38
-0.003712100129 0.01269519014 -0.006000000238 1.281227785e-38
-0.003390297709 0.01269519014 -0.006000000238 1.299666911e-38
-0.003078932212 0.01273837051 -0.005000013113 1.290447348e-38
-0.0008242036069 0.01282473252 -0.00300000906 1.290447348e-38
-0.0004991174976 0.01282473252 -0.00300000906 1.290447348e-38
-0.0001740313882 0.01282473252 -0.00300000906 1.244349533e-38
0.01113742461 0.01442242654 0.03399999142 1.12413396e-38
0.01150300966 0.01442242654 0.03399999142 1.114914397e-38
0.01186859471 0.01442242654 0.03399999142 1.142573085e-38
0.01511347498 0.01437924618 0.03300000429 1.151792648e-38
0.01547796548 0.01437924618 0.03300000429 1.142573085e-38
0.01584245598 0.01437924618 0.03300000429 1.179451337e-38
0.01615827615 0.01433606453 0.03199998736 1.1886709e-38
0.01652167207 0.01433606453 0.03199998736 1.207110026e-38
0.01688506798 0.01433606453 0.03199998736 1.253207841e-38
0.0172484639 0.01433606453 0.03199998736 1.253207841e-38
0.01761185982 0.01433606453 0.03199998736 1.253172248e-38
0.01797525574 0.01433606453 0.03199998736 1.253172248e-38
0.01833865165 0.01433606453 0.03199998736 1.271611374e-38
0.01864571683 0.01429288416 0.03100000024 1.243952685e-38
0.01900801819 0.01429288416 0.03100000024 1.253172248e-38
0.01937031956 0.01429288416 0.03100000024 1.253172248e-38
0.01967300652 0.0142497038 0.03000001311 1.253172248e-38
0.02003421333 0.0142497038 0.03000001311 1.2900505e-38
0.02039542015 0.0142497038 0.03000001311 1.299270063e-38
0.02075662696 0.0142497038 0.03000001311 1.345367878e-38
0.02105383926 0.01420652215 0.02899999619 1.354623034e-38
0.02141395149 0.01420652215 0.02899999619 1.336183908e-38
0.021707882 0.01416334179 0.02800000906 1.317744782e-38
0.02206689968 0.01416334179 0.02800000906 1.308525219e-38
0.02242591736 0.01416334179 0.02800000906 1.317744782e-38
0.02271546759 0.01412016014 0.02699999213 1.345403471e-38
0.02307339069 0.01412016014 0.02699999213 1.345403471e-38
0.02343131378 0.01412016014 0.02699999213 1.354623034e-38
0.02371648785 0.01407697978 0.02600000501 1.345403471e-38
0.02407331639 0.01407697978 0.02600000501 1.354623034e-38
0.02443014493 0.01407697978 0.02600000501 1.363807004e-38
-0.02706243441 0.01359250868 0.007000011206 1.179777279e-38
-0.02681345818 0.01363678338 0.007999998331 1.179669379e-38
-0.02647633184 0.01363678338 0.007999998331 1.152010691e-38
-0.02613920549 0.01363678338 0.007999998331 1.170449816e-38
-0.02580207915 0.01363678338 0.007999998331 1.188888942e-38
-0.02554763016 0.01368105808 0.008999985456 1.179776999e-38
-0.02520940926 0.01368105808 0.008999985456 1.207435688e-38
-0.02487118837 0.01368105808 0.008999985456 1.179776999e-38
-0.02453296747 0.01368105808 0.008999985456 1.161337873e-38
-0.02427304805 0.0137253341 0.01000000238 1.161337873e-38
-0.02393373257 0.0137253341 0.01000000238 1.15211831e-38
-0.02359441709 0.0137253341 0.01000000238 1.133679184e-38
-0.02325510161 0.0137253341 0.01000000238 1.142898747e-38
-0.02291578613 0.0137253341 0.01000000238 1.142898747e-38
-0.02257647065 0.0137253341 0.01000000238 1.15211831e-38
-0.022308887 0.0137696088 0.01099998951 1.15211831e-38
-0.02196847697 0.0137696088 0.01099998951 1.142898747e-38
-0.01949272387 0.01394671025 0.01499999762 1.124531648e-38
-0.01914793556 0.01394671025 0.01499999762 1.124531648e-38
-0.01880314726 0.01394671025 0.01499999762 1.115312085e-38
-0.01454821493 0.01416808639 0.01999999285 1.013824865e-38
-0.0141979538 0.01416808639 0.01999999285 1.078361806e-38
-0.01384769267 0.01416808639 0.01999999285 1.078361806e-38
-0.01353961173 0.01421236241 0.02100000978 1.087581369e-38
-0.01318825601 0.01421236241 0.02100000978 1.133679184e-38
-0.01283690029 0.01421236241 0.02100000978 1.106020495e-38
-0.01248554458 0.01421236241 0.02100000978 1.078433833e-38
-0.005321112234 0.01301692965 -0.006000000238 1.290303855e-38
-0.004999309813 0.01301692965 -0.006000000238 1.299523418e-38
-0.004677507392 0.01301692965 -0.006000000238 1.308742981e-38
-0.004355704971 0.01301692965 -0.006000000238 1.317998137e-38
-0.00403390255 0.01301692965 -0.006000000238 1.281119885e-38
-0.003712100129 0.01301692965 -0.006000000238 1.290339448e-38
-0.003390297709 0.01301692965 -0.006000000238 1.281119885e-38
-0.003078932212 0.01306120435 -0.005000013113 1.290339448e-38
-0.0008242036069 0.01314975507 -0.00300000906 1.290339448e-38
-0.0004991174976 0.01314975507 -0.00300000906 1.3272177e-38
-0.0001740313882 0.01314975507 -0.00300000906 1.290339448e-38
0.00457053726 0.01483221614 0.03500000834 1.244241353e-38
0.004937216899 0.01483221614 0.03500000834 1.253460916e-38
0.005303896537 0.01483221614 0.03500000834 1.262680479e-38
0.005670576176 0.01483221614 0.03500000834 1.290339168e-38
0.006037255815 0.01483221614 0.03500000834 1.225802227e-38
0.006423051432 0.01487649084 0.03599999547 1.225802227e-38
0.01043741148 0.01483221614 0.03500000834 1.151792648e-38
0.01077183955 0.01478794012 0.03399999142 1.151792648e-38
0.01113742461 0.01478794012 0.03399999142 1.151792648e-38
0.01150300966 0.01478794012 0.03399999142 1.142573085e-38
0.01186859471 0.01478794012 0.03399999142 1.197782563e-38
0.01223417977 0.01478794012 0.03399999142 1.188563e-38
0.01511347498 0.01474366542 0.03300000429 1.161012211e-38
0.01547796548 0.01474366542 0.03300000429 1.170231774e-38
0.01584245598 0.01474366542 0.03300000429 1.179451337e-38
0.01615827615 0.0146993894 0.03199998736 1.216329589e-38
0.01652167207 0.0146993894 0.03199998736 1.234768715e-38
0.01688506798 0.0146993894 0.03199998736 1.253207841e-38
0.0172484639 0.0146993894 0.03199998736 1.253207841e-38
0.01761185982 0.0146993894 0.03199998736 1.253207841e-38
0.01797525574 0.0146993894 0.03199998736 1.290086093e-38
0.01833865165 0.0146993894 0.03199998736 1.299305656e-38
0.01864571683 0.0146551147 0.03100000024 1.243988278e-38
0.01900801819 0.0146551147 0.03100000024 1.299305656e-38
0.01937031956 0.0146551147 0.03100000024 1.290086093e-38
0.01967300652 0.01461084 0.03000001311 1.271646967e-38
0.02003421333 0.01461084 0.03000001311 1.290086093e-38
0.02039542015 0.01461084 0.03000001311 1.299305656e-38
0.02075662696 0.01461084 0.03000001311 1.317744782e-38
0.02105383926 0.01456656398 0.02899999619 1.317744782e-38
0.02141395149 0.01456656398 0.02899999619 1.336183908e-38
0.021707882 0.01452228927 0.02800000906 1.299377683e-38
0.02206689968 0.01452228927 0.02800000906 1.29015812e-38
0.02242591736 0.01452228927 0.02800000906 1.299377683e-38
0.02271546759 0.01447801325 0.02699999213 1.327036372e-38
0.02307339069 0.01447801325 0.02699999213 1.327036372e-38
0.02343131378 0.01447801325 0.02699999213 1.317816809e-38
0.02371648785 0.01443373855 0.02600000501 1.336255935e-38
0.02407331639 0.01443373855 0.02600000501 1.345475498e-38
0.02443014493 0.01443373855 0.02600000501 1.37306216e-38
-0.02706243441 0.01392847478 0.007000011206 1.198216405e-38
-0.02681345818 0.01397384381 0.007999998331 1.216655531e-38
-0.02647633184 0.01397384381 0.007999998331 1.15211859e-38
-0.02613920549 0.01397384381 0.007999998331 1.142899028e-38
-0.02580207915 0.01397384381 0.007999998331 1.142899028e-38
-0.02554763016 0.01401921285 0.008999985456 1.198216125e-38
-0.02520940926 0.01401921285 0.008999985456 1.198216125e-38
-0.02487118837 0.01401921285 0.008999985456 1.179776999e-38
-0.02453296747 0.01401921285 0.008999985456 1.179776999e-38
-0.02427304805 0.01406458324 0.01000000238 1.198216125e-38
-0.02393373257 0.01406458324 0.01000000238 1.170557436e-38
-0.02359441709 0.01406458324 0.01000000238 1.142898747e-38
-0.02325510161 0.01406458324 0.01000000238 1.142898747e-38
-0.02291578613 0.01406458324 0.01000000238 1.15211831e-38
-0.02257647065 0.01406458324 0.01000000238 1.161337873e-38
-0.022308887 0.01410995228 0.01099998951 1.161337873e-38
-0.02196847697 0.01410995228 0.01099998951 1.161337873e-38
-0.02162806694 0.01410995228 0.01099998951 1.152190337e-38
-0.02128765691 0.01410995228 0.01099998951 1.133751211e-38
-0.02108195614 0.01420069171 0.01299999356 1.124531648e-38
-0.02073935697 0.01420069171 0.01299999356 1.115312085e-38
-0.01983751217 0.01429143114 0.01499999762 1.124531648e-38
-0.01949272387 0.01429143114 0.01499999762 1.124531648e-38
-0.01914793556 0.01429143114 0.01499999762 1.124531648e-38
-0.01880314726 0.01429143114 0.01499999762 1.096872959e-38
-0.01851695791 0.01433680153 0.01600001454 1.096800932e-38
-0.01817107502 0.01433680153 0.01600001454 1.096800932e-38
-0.01788160023 0.01438217057 0.01700000167 1.115240058e-38
-0.01753462279 0.01438217057 0.01700000167 1.115240058e-38
-0.01718764535 0.01438217057 0.01700000167 1.115240058e-38
-0.01684066791 0.01438217057 0.01700000167 1.133679184e-38
-0.01649369047 0.01438217057 0.01700000167 1.142898747e-38
-0.01619764837 0.01442753961 0.01799998879 1.133679184e-38
-0.01584957638 0.01442753961 0.01799998879 1.115240058e-38
-0.01454821493 0.01451827904 0.01999999285 1.087581369e-38
-0.0141979538 0.01451827904 0.01999999285 1.142898747e-38
-0.01384769267 0.01451827904 0.01999999285 1.133679184e-38
-0.01353961173 0.01456364943 0.02100000978 1.115240058e-38
-0.01318825601 0.01456364943 0.02100000978 1.106020495e-38
-0.01283690029 0.01456364943 0.02100000978 1.133679184e-38
-0.01248554458 0.01456364943 0.02100000978 1.115240058e-38
-0.01217198959 0.01460901847 0.0219999969 1.106020495e-38
-0.01181953932 0.01460901847 0.0219999969 1.069142243e-38
-0.01146708905 0.01460901847 0.0219999969 1.078361806e-38
-0.008674342919 0.01465438886 0.02300001383 1.115312365e-38
-0.008320798067 0.01465438886 0.02300001383 1.124531928e-38
-0.004355704971 0.01333866916 -0.006000000238 1.290267561e-38
-0.00403390255 0.01333866916 -0.006000000238 1.290267561e-38
-0.003712100129 0.01333866916 -0.006000000238 1.299487124e-38
-0.003390297709 0.01333866916 -0.006000000238 1.299487124e-38
-0.003078932212 0.0133840382 -0.005000013113 1.290339448e-38
-0.000556255545 0.01501734523 0.03100000024 1.364095952e-38
-0.0001939541795 0.01501734523 0.03100000024 1.290339448e-38
0.000168347186 0.01501734523 0.03100000024 1.262680759e-38
0.004191308581 0.0151534537 0.03399999142 1.290302874e-38
0.004556893635 0.0151534537 0.03399999142 1.262644185e-38
0.004937216899 0.01519882409 0.03500000834 1.253424622e-38
0.005303896537 0.01519882409 0.03500000834 1.253424622e-38
0.005670576176 0.01519882409 0.03500000834 1.271863748e-38
0.006037255815 0.01519882409 0.03500000834 1.262644185e-38
0.006423051432 0.01524419313 0.03599999547 1.225765933e-38
0.006790825622 0.01524419313 0.03599999547 1.234985496e-38
0.007158599813 0.01524419313 0.03599999547 1.253424622e-38
0.007526374003 0.01524419313 0.03599999547 1.207326807e-38
0.007894148194 0.01524419313 0.03599999547 1.198107244e-38
0.008261922385 0.01524419313 0.03599999547 1.234985496e-38
0.008629696575 0.01524419313 0.03599999547 1.262644185e-38
0.008997470766 0.01524419313 0.03599999547 1.115130897e-38
0.009365244956 0.01524419313 0.03599999547 1.244204779e-38
0.0097040522 0.01519882409 0.03500000834 1.188779221e-38
0.01007073184 0.01519882409 0.03500000834 1.115022717e-38
0.01043741148 0.01519882409 0.03500000834 1.170231774e-38
0.01077183955 0.0151534537 0.03399999142 1.151792648e-38
0.01113742461 0.0151534537 0.03399999142 1.160904311e-38
0.01150300966 0.0151534537 0.03399999142 1.160904311e-38
0.01186859471 0.0151534537 0.03399999142 1.234660815e-38
0.01223417977 0.0151534537 0.03399999142 1.197782563e-38
0.01296534988 0.0151534537 0.03399999142 1.197782563e-38
0.01333093493 0.0151534537 0.03399999142 1.207002126e-38
0.01438449397 0.01510808466 0.03300000429 1.1886709e-38
0.01474898447 0.01510808466 0.03300000429 1.207110026e-38
0.01511347498 0.01510808466 0.03300000429 1.207110026e-38
0.01547796548 0.01510808466 0.03300000429 1.170231774e-38
0.01584245598 0.01510808466 0.03300000429 1.1886709e-38
0.01620694648 0.01510808466 0.03300000429 1.216329589e-38
0.01652167207 0.01506271427 0.03199998736 1.234768715e-38
0.01688506798 0.01506271427 0.03199998736 1.271646967e-38
0.0172484639 0.01506271427 0.03199998736 1.253207841e-38
0.01761185982 0.01506271427 0.03199998736 1.271646967e-38
0.01797525574 0.01506271427 0.03199998736 1.28086653e-38
0.01833865165 0.01506271427 0.03199998736 1.253207841e-38
0.01864571683 0.01501734523 0.03100000024 1.253207841e-38
0.01900801819 0.01501734523 0.03100000024 1.299305656e-38
0.01937031956 0.01501734523 0.03100000024 1.28086653e-38
0.01973262092 0.01501734523 0.03100000024 1.28086653e-38
0.02003421333 0.01497197619 0.03000001311 1.290086093e-38
0.02039542015 0.01497197619 0.03000001311 1.299305656e-38
0.02075662696 0.01497197619 0.03000001311 1.308525219e-38
0.02105383926 0.0149266058 0.02899999619 1.317744782e-38
0.02141395149 0.0149266058 0.02899999619 1.336183908e-38
0.021707882 0.01488123676 0.02800000906 1.336183908e-38
0.02206689968 0.01488123676 0.02800000906 1.317744782e-38
0.02242591736 0.01488123676 0.02800000906 1.317744782e-38
0.02271546759 0.01483586637 0.02699999213 1.345403471e-38
0.02307339069 0.01483586637 0.02699999213 1.363842597e-38
0.02343131378 0.01483586637 0.02699999213 1.336183908e-38
0.02371648785 0.01479049733 0.02600000501 1.345403471e-38
0.02407331639 0.01479049733 0.02600000501 1.345403471e-38
0.02443014493 0.01479049733 0.02600000501 1.354623034e-38
-0.02706243441 0.01426444087 0.007000011206 1.170557716e-38
-0.02681345818 0.01431090425 0.007999998331 1.170449816e-38
-0.02647633184 0.01431090425 0.007999998331 1.161230253e-38
-0.02613920549 0.01431090425 0.007999998331 1.161338153e-38
-0.02588585105 0.01435736763 0.008999985456 1.179777279e-38
-0.02554763016 0.01435736763 0.008999985456 1.207435688e-38
-0.02520940926 0.01435736763 0.008999985456 1.207435688e-38
-0.02487118837 0.01435736763 0.008999985456 1.207435688e-38
-0.02461236353 0.01440383239 0.01000000238 1.207435688e-38
-0.02427304805 0.01440383239 0.01000000238 1.207435688e-38
-0.02393373257 0.01440383239 0.01000000238 1.170557436e-38
-0.02359441709 0.01440383239 0.01000000238 1.161337873e-38
-0.02325510161 0.01440383239 0.01000000238 1.15211831e-38
-0.02291578613 0.01440383239 0.01000000238 1.15211831e-38
-0.02257647065 0.01440383239 0.01000000238 1.161337873e-38
-0.022308887 0.01445029576 0.01099998951 1.170557436e-38
-0.02196847697 0.01445029576 0.01099998951 1.170557436e-38
-0.02162806694 0.01445029576 0.01099998951 1.179849026e-38
-0.02128765691 0.01445029576 0.01099998951 1.179849026e-38
-0.02101460251 0.01449676053 0.01200000644 1.124531648e-38
-0.02073935697 0.0145432239 0.01299999356 1.124531648e-38
-0.02046192426 0.01458968866 0.01400001049 1.124531648e-38
-0.02011823051 0.01458968866 0.01400001049 1.115312085e-38
-0.01977453675 0.01458968866 0.01400001049 1.124531648e-38
-0.01949272387 0.01463615204 0.01499999762 1.133751211e-38
-0.01914793556 0.01463615204 0.01499999762 1.124531648e-38
-0.01880314726 0.01463615204 0.01499999762 1.124531648e-38
-0.01851695791 0.0146826168 0.01600001454 1.078361806e-38
-0.01817107502 0.0146826168 0.01600001454 1.106020495e-38
-0.01788160023 0.01472908018 0.01700000167 1.161373466e-38
-0.01753462279 0.01472908018 0.01700000167 1.14293434e-38
-0.01718764535 0.01472908018 0.01700000167 1.14293434e-38
-0.01684066791 0.01472908018 0.01700000167 1.133714777e-38
-0.01649369047 0.01472908018 0.01700000167 1.133714777e-38
-0.01619764837 0.01477554356 0.01799998879 1.14293434e-38
-0.01584957638 0.01477554356 0.01799998879 1.142898747e-38
-0.01489847606 0.01486847169 0.01999999285 1.142898747e-38
-0.01454821493 0.01486847169 0.01999999285 1.115240058e-38
-0.0141979538 0.01486847169 0.01999999285 1.115240058e-38
-0.01384769267 0.01486847169 0.01999999285 1.133679184e-38
-0.01353961173 0.01491493646 0.02100000978 1.106020495e-38
-0.01318825601 0.01491493646 0.02100000978 1.106020495e-38
-0.01283690029 0.01491493646 0.02100000978 1.115240058e-38
-0.01248554458 0.01491493646 0.02100000978 1.115240058e-38
-0.01217198959 0.01496139983 0.0219999969 1.142898747e-38
-0.01181953932 0.01496139983 0.0219999969 1.069177836e-38
-0.01146708905 0.01496139983 0.0219999969 1.096836525e-38
-0.01111463879 0.01496139983 0.0219999969 1.078361806e-38
-0.01079561203 0.01500786459 0.02300001383 1.24431394e-38
-0.01044206718 0.01500786459 0.02300001383 1.179776999e-38
-0.01008852233 0.01500786459 0.02300001383 1.115240058e-38
-0.009734977474 0.01500786459 0.02300001383 1.142898747e-38
-0.00902788777 0.01500786459 0.02300001383 1.15211859e-38
-0.008674342919 0.01500786459 0.02300001383 1.142899028e-38
-0.008320798067 0.01500786459 0.02300001383 1.142898747e-38
-0.007991919315 0.01505432797 0.02400000095 1.115240058e-38
-0.007637279911 0.01505432797 0.02400000095 1.198108225e-38
-0.007282640507 0.01505432797 0.02400000095 1.262645166e-38
-0.002360609104 0.01533311239 0.03000001311 1.281119885e-38
-0.00199940229 0.01533311239 0.03000001311 1.281119885e-38
-0.001638195477 0.01533311239 0.03000001311 1.262680759e-38
-0.001280858276 0.01537957576 0.03100000024 1.290267561e-38
-0.0009185569104 0.01537957576 0.03100000024 1.299487124e-38
-0.000556255545 0.01537957576 0.03100000024 1.299487124e-38
-0.0001939541795 0.01537957576 0.03100000024 1.299487124e-38
0.000168347186 0.01537957576 0.03100000024 1.290267561e-38
0.0005306485515 0.01537957576 0.03100000024 1.299487124e-38
0.000892949917 0.01537957576 0.03100000024 1.290267561e-38
0.001259043534 0.01542603914 0.03199998736 1.271828435e-38
0.001622439451 0.01542603914 0.03199998736 1.290267561e-38
0.004191308581 0.01551896728 0.03399999142 1.290302874e-38
0.004556893635 0.01551896728 0.03399999142 1.290302874e-38
0.004937216899 0.01556543204 0.03500000834 1.262644185e-38
0.005303896537 0.01556543204 0.03500000834 1.262644185e-38
0.005670576176 0.01556543204 0.03500000834 1.271863748e-38
0.006037255815 0.01556543204 0.03500000834 1.280975411e-38
0.006423051432 0.01561189542 0.03599999547 1.244097159e-38
0.006790825622 0.01561189542 0.03599999547 1.244097159e-38
0.007158599813 0.01561189542 0.03599999547 1.244097159e-38
0.007526374003 0.01561189542 0.03599999547 1.225658033e-38
0.007894148194 0.01561189542 0.03599999547 1.225658033e-38
0.008261922385 0.01561189542 0.03599999547 1.244097159e-38
0.008629696575 0.01561189542 0.03599999547 1.225658033e-38
0.008997470766 0.01561189542 0.03599999547 1.078252645e-38
0.009365244956 0.01561189542 0.03599999547 1.336400409e-38
0.0097040522 0.01556543204 0.03500000834 1.225621179e-38
0.01007073184 0.01556543204 0.03500000834 1.087327734e-38
0.01043741148 0.01556543204 0.03500000834 1.188563e-38
0.01077183955 0.01551896728 0.03399999142 1.179343437e-38
0.01113742461 0.01551896728 0.03399999142 1.179343437e-38
0.01150300966 0.01551896728 0.03399999142 1.188563e-38
0.01186859471 0.01551896728 0.03399999142 1.188563e-38
0.01223417977 0.01551896728 0.03399999142 1.197782563e-38
0.01296534988 0.01551896728 0.03399999142 1.188563e-38
0.01333093493 0.01551896728 0.03399999142 1.188563e-38
0.01438449397 0.0154725039 0.03300000429 1.243988278e-38
0.01474898447 0.0154725039 0.03300000429 1.142573085e-38
0.01511347498 0.0154725039 0.03300000429 1.170231774e-38
0.01547796548 0.0154725039 0.03300000429 1.170231774e-38
0.01584245598 0.0154725039 0.03300000429 1.207110026e-38
0.01620694648 0.0154725039 0.03300000429 1.225549152e-38
0.01657143698 0.0154725039 0.03300000429 1.28086653e-38
0.01693592749 0.0154725039 0.03300000429 1.28086653e-38
0.01730041799 0.0154725039 0.03300000429 1.253207841e-38
0.01761185982 0.01542603914 0.03199998736 1.253207841e-38
0.01797525574 0.01542603914 0.03199998736 1.28086653e-38
0.01833865165 0.01542603914 0.03199998736 1.271646967e-38
0.01870204757 0.01542603914 0.03199998736 1.271646967e-38
0.01900801819 0.01537957576 0.03100000024 1.28086653e-38
0.01937031956 0.01537957576 0.03100000024 1.299305656e-38
0.01973262092 0.01537957576 0.03100000024 1.290086093e-38
0.02003421333 0.01533311239 0.03000001311 1.299305656e-38
0.02039542015 0.01533311239 0.03000001311 1.299305656e-38
0.02075662696 0.01533311239 0.03000001311 1.308525219e-38
0.02105383926 0.01528664763 0.02899999619 1.317744782e-38
0.02141395149 0.01528664763 0.02899999619 1.336183908e-38
0.021707882 0.01524018425 0.02800000906 1.345403471e-38
0.02206689968 0.01524018425 0.02800000906 1.317744782e-38
0.02242591736 0.01524018425 0.02800000906 1.317744782e-38
0.02271546759 0.01519371949 0.02699999213 1.345403471e-38
0.02307339069 0.01519371949 0.02699999213 1.37306216e-38
0.02343131378 0.01519371949 0.02699999213 1.345403471e-38
0.02371648785 0.01514725611 0.02600000501 1.354623034e-38
0.02407331639 0.01514725611 0.02600000501 1.354623034e-38
0.02443014493 0.01514725611 0.02600000501 1.336183908e-38
-0.02715058452 0.01464796468 0.007999998331 1.170449816e-38
-0.02681345818 0.01464796468 0.007999998331 1.179669379e-38
-0.02647633184 0.01464796468 0.007999998331 1.24420632e-38
-0.02613920549 0.01464796468 0.007999998331 1.234986757e-38
-0.02588585105 0.0146955224 0.008999985456 1.234986757e-38
-0.02554763016 0.0146955224 0.008999985456 1.216655251e-38
-0.0252909945 0.01474308153 0.01000000238 1.225874814e-38
-0.02495167902 0.01474308153 0.01000000238 1.235094377e-38
-0.02461236353 0.01474308153 0.01000000238 1.225874814e-38
-0.02427304805 0.01474308153 0.01000000238 1.216655251e-38
-0.02393373257 0.01474308153 0.01000000238 1.198216125e-38
-0.02359441709 0.01474308153 0.01000000238 1.170557436e-38
-0.02325510161 0.01474308153 0.01000000238 1.170557436e-38
-0.02298970707 0.01479063924 0.01099998951 1.179776999e-38
-0.02264929704 0.01479063924 0.01099998951 1.198216125e-38
-0.022308887 0.01479063924 0.01099998951 1.198216125e-38
-0.02196847697 0.01479063924 0.01099998951 1.198216125e-38
-0.02169761174 0.01483819838 0.01200000644 1.179776999e-38
-0.02135610713 0.01483819838 0.01200000644 1.170557436e-38
-0.02101460251 0.01483819838 0.01200000644 1.15211831e-38
-0.02073935697 0.01488575609 0.01299999356 1.142898747e-38
-0.02046192426 0.01493331522 0.01400001049 1.15211831e-38
-0.02011823051 0.01493331522 0.01400001049 1.142898747e-38
-0.01977453675 0.01493331522 0.01400001049 1.142898747e-38
-0.01949272387 0.01498087294 0.01499999762 1.161337873e-38
-0.01914793556 0.01498087294 0.01499999762 1.179776999e-38
-0.01880314726 0.01498087294 0.01499999762 1.198216125e-38
-0.01851695791 0.01502843207 0.01600001454 1.142898747e-38
-0.01817107502 0.01502843207 0.01600001454 1.133679184e-38
-0.01788160023 0.01507598979 0.01700000167 1.142898747e-38
-0.01753462279 0.01507598979 0.01700000167 1.142898747e-38
-0.01718764535 0.01507598979 0.01700000167 1.152153903e-38
-0.01684066791 0.01507598979 0.01700000167 1.161373466e-38
-0.01649369047 0.01507598979 0.01700000167 1.14293434e-38
-0.01619764837 0.0151235475 0.01799998879 1.152153903e-38
-0.01584957638 0.0151235475 0.01799998879 1.161373466e-38
-0.01489847606 0.01521866435 0.01999999285 1.133679184e-38
-0.01454821493 0.01521866435 0.01999999285 1.133679184e-38
-0.0141979538 0.01521866435 0.01999999285 1.142898747e-38
-0.01384769267 0.01521866435 0.01999999285 1.142898747e-38
-0.01353961173 0.01526622348 0.02100000978 1.115240058e-38
-0.01318825601 0.01526622348 0.02100000978 1.115240058e-38
-0.01283690029 0.01526622348 0.02100000978 1.133679184e-38
-0.01248554458 0.01526622348 0.02100000978 1.133679184e-38
-0.01217198959 0.01531378119 0.0219999969 1.106020495e-38
-0.01181953932 0.01531378119 0.0219999969 1.087581369e-38
-0.01146708905 0.01531378119 0.0219999969 1.087581369e-38
-0.01111463879 0.01531378119 0.0219999969 1.106020495e-38
-0.01079561203 0.01536134033 0.02300001383 1.281192192e-38
-0.01044206718 0.01536134033 0.02300001383 1.216727278e-38
-0.01008852233 0.01536134033 0.02300001383 1.179849026e-38
-0.009734977474 0.01536134033 0.02300001383 1.133751491e-38
-0.00902788777 0.01536134033 0.02300001383 1.15211859e-38
-0.008674342919 0.01536134033 0.02300001383 1.161338153e-38
-0.008320798067 0.01536134033 0.02300001383 1.161338153e-38
-0.007991919315 0.01540889804 0.02400000095 1.179777279e-38
-0.007637279911 0.01540889804 0.02400000095 1.216655251e-38
-0.007282640507 0.01540889804 0.02400000095 1.262753066e-38
-0.002360609104 0.01569424858 0.03000001311 1.299487124e-38
-0.00199940229 0.01569424858 0.03000001311 1.290267561e-38
-0.001638195477 0.01569424858 0.03000001311 1.290267561e-38
-0.001280858276 0.0157418063 0.03100000024 1.299487124e-38
-0.0009185569104 0.0157418063 0.03100000024 1.308706687e-38
-0.000556255545 0.0157418063 0.03100000024 1.308706687e-38
-0.0001939541795 0.0157418063 0.03100000024 1.336365376e-38
0.000168347186 0.0157418063 0.03100000024 1.364024065e-38
0.0005306485515 0.0157418063 0.03100000024 1.31792625e-38
0.000892949917 0.0157418063 0.03100000024 1.299487124e-38
0.001259043534 0.01578936401 0.03199998736 1.299487124e-38
0.001622439451 0.01578936401 0.03199998736 1.308706687e-38
0.003460138473 0.01588448086 0.03399999142 1.308742e-38
0.003825723527 0.01588448086 0.03399999142 1.299522437e-38
0.004191308581 0.01588448086 0.03399999142 1.290302874e-38
0.004556893635 0.01588448086 0.03399999142 1.271863748e-38
0.004922478689 0.01588448086 0.03399999142 1.271863748e-38
0.005303896537 0.01593203999 0.03500000834 1.271863748e-38
0.005670576176 0.01593203999 0.03500000834 1.262644185e-38
0.006037255815 0.01593203999 0.03500000834 1.262644185e-38
0.006423051432 0.01597959771 0.03599999547 1.244205059e-38
0.006790825622 0.01597959771 0.03599999547 1.234985496e-38
0.007158599813 0.01597959771 0.03599999547 1.225765933e-38
0.007526374003 0.01597959771 0.03599999547 1.244097159e-38
0.007894148194 0.01597959771 0.03599999547 1.253316722e-38
0.008261922385 0.01597959771 0.03599999547 1.262536285e-38
0.008629696575 0.01597959771 0.03599999547 1.197999344e-38
0.008997470766 0.01597959771 0.03599999547 1.115022997e-38
0.009365244956 0.01597959771 0.03599999547 1.317853383e-38
0.0097040522 0.01593203999 0.03500000834 1.234768715e-38
0.01007073184 0.01593203999 0.03500000834 1.179451337e-38
0.01043741148 0.01593203999 0.03500000834 1.197782283e-38
0.01077183955 0.01588448086 0.03399999142 1.197782283e-38
0.01113742461 0.01588448086 0.03399999142 1.197782283e-38
0.01150300966 0.01588448086 0.03399999142 1.197782283e-38
0.01186859471 0.01588448086 0.03399999142 1.197710397e-38
0.01223417977 0.01588448086 0.03399999142 1.20692996e-38
0.01259976482 0.01588448086 0.03399999142 1.188563e-38
0.01296534988 0.01588448086 0.03399999142 1.197782563e-38
0.01333093493 0.01588448086 0.03399999142 1.188563e-38
0.01369651998 0.01588448086 0.03399999142 1.207002126e-38
0.01406210504 0.01588448086 0.03399999142 1.207002126e-38
0.01438449397 0.01583692314 0.03300000429 1.234660815e-38
0.01474898447 0.01583692314 0.03300000429 1.179451337e-38
0.01511347498 0.01583692314 0.03300000429 1.1886709e-38
0.01547796548 0.01583692314 0.03300000429 1.1886709e-38
0.01584245598 0.01583692314 0.03300000429 1.225549152e-38
0.01620694648 0.01583692314 0.03300000429 1.234768715e-38
0.01657143698 0.01583692314 0.03300000429 1.253207841e-38
0.01693592749 0.01583692314 0.03300000429 1.271646967e-38
0.01730041799 0.01583692314 0.03300000429 1.253207841e-38
0.01761185982 0.01578936401 0.03199998736 1.271646967e-38
0.01797525574 0.01578936401 0.03199998736 1.271646967e-38
0.01833865165 0.01578936401 0.03199998736 1.28086653e-38
0.01870204757 0.01578936401 0.03199998736 1.28086653e-38
0.01900801819 0.0157418063 0.03100000024 1.28086653e-38
0.01937031956 0.0157418063 0.03100000024 1.299305656e-38
0.01967300652 0.01569424858 0.03000001311 1.28086653e-38
0.02003421333 0.01569424858 0.03000001311 1.290086093e-38
0.02039542015 0.01569424858 0.03000001311 1.299305656e-38
0.02069372703 0.01564668945 0.02899999619 1.299305656e-38
0.02105383926 0.01564668945 0.02899999619 1.317744782e-38
0.02141395149 0.01564668945 0.02899999619 1.317744782e-38
0.021707882 0.01559913174 0.02800000906 1.308525219e-38
0.02206689968 0.01559913174 0.02800000906 1.299305656e-38
0.02242591736 0.01559913174 0.02800000906 1.317744782e-38
0.02271546759 0.0155515726 0.02699999213 1.345403471e-38
0.02307339069 0.0155515726 0.02699999213 1.354623034e-38
0.02343131378 0.0155515726 0.02699999213 1.354623034e-38
0.02371648785 0.01550401489 0.02600000501 1.354623034e-38
0.02407331639 0.01550401489 0.02600000501 1.354623034e-38
0.02443014493 0.01550401489 0.02600000501 1.336183908e-38
-0.02715058452 0.01498502512 0.007999998331 1.170449536e-38
-0.02681345818 0.01498502512 0.007999998331 1.188888662e-38
-0.02647633184 0.01498502512 0.007999998331 1.179669099e-38
-0.02613920549 0.01498502512 0.007999998331 1.198108505e-38
-0.02588585105 0.01503367717 0.008999985456 1.253425883e-38
-0.02554763016 0.01503367717 0.008999985456 1.253425603e-38
-0.0252909945 0.01508233067 0.01000000238 1.253425603e-38
-0.02495167902 0.01508233067 0.01000000238 1.262753066e-38
-0.02461236353 0.01508233067 0.01000000238 1.24431394e-38
-0.02427304805 0.01508233067 0.01000000238 1.216655251e-38
-0.02393373257 0.01508233067 0.01000000238 1.198216125e-38
-0.02359441709 0.01508233067 0.01000000238 1.198216125e-38
-0.02325510161 0.01508233067 0.01000000238 1.207435688e-38
-0.02298970707 0.01513098272 0.01099998951 1.207435688e-38
-0.02264929704 0.01513098272 0.01099998951 1.207435688e-38
-0.022308887 0.01513098272 0.01099998951 1.216655251e-38
-0.02196847697 0.01513098272 0.01099998951 1.198216125e-38
-0.02169761174 0.01517963623 0.01200000644 1.198216125e-38
-0.02135610713 0.01517963623 0.01200000644 1.179776999e-38
-0.02101460251 0.01517963623 0.01200000644 1.161337873e-38
-0.02073935697 0.01522828828 0.01299999356 1.142898747e-38
-0.02046192426 0.01527694178 0.01400001049 1.15211831e-38
-0.02011823051 0.01527694178 0.01400001049 1.15211831e-38
-0.01977453675 0.01527694178 0.01400001049 1.15211831e-38
-0.01949272387 0.01532559384 0.01499999762 1.15211831e-38
-0.01914793556 0.01532559384 0.01499999762 1.161337873e-38
-0.01880314726 0.01532559384 0.01499999762 1.161337873e-38
-0.01851695791 0.01537424734 0.01600001454 1.161337873e-38
-0.01817107502 0.01537424734 0.01600001454 1.133679184e-38
-0.01788160023 0.01542289939 0.01700000167 1.133714777e-38
-0.01753462279 0.01542289939 0.01700000167 1.14293434e-38
-0.01718764535 0.01542289939 0.01700000167 1.14293434e-38
-0.01684066791 0.01542289939 0.01700000167 1.14293434e-38
-0.01649369047 0.01542289939 0.01700000167 1.14293434e-38
-0.01619764837 0.01547155144 0.01799998879 1.161373466e-38
-0.01584957638 0.01547155144 0.01799998879 1.161337873e-38
-0.01555025208 0.01552020495 0.01900000572 1.170557436e-38
-0.0152010855 0.01552020495 0.01900000572 1.142898747e-38
-0.01485191892 0.01552020495 0.01900000572 1.133679184e-38
-0.01454821493 0.015568857 0.01999999285 1.142898747e-38
-0.0141979538 0.015568857 0.01999999285 1.142898747e-38
-0.01384769267 0.015568857 0.01999999285 1.133679184e-38
-0.01353961173 0.0156175105 0.02100000978 1.133679184e-38
-0.01318825601 0.0156175105 0.02100000978 1.115240058e-38
-0.01283690029 0.0156175105 0.02100000978 1.133679184e-38
-0.01248554458 0.0156175105 0.02100000978 1.133679184e-38
-0.01217198959 0.01566616256 0.0219999969 1.106020495e-38
-0.01181953932 0.01566616256 0.0219999969 1.096800932e-38
-0.01146708905 0.01566616256 0.0219999969 1.050703117e-38
-0.01111463879 0.01566616256 0.0219999969 1.087653396e-38
-0.01079561203 0.01571481606 0.02300001383 1.207507715e-38
-0.01044206718 0.01571481606 0.02300001383 1.262825093e-38
-0.01008852233 0.01571481606 0.02300001383 1.179849026e-38
-0.009734977474 0.01571481606 0.02300001383 1.152190337e-38
-0.009381432622 0.01571481606 0.02300001383 1.152190337e-38
-0.00902788777 0.01571481606 0.02300001383 1.133751211e-38
-0.008674342919 0.01571481606 0.02300001383 1.133751211e-38
-0.008320798067 0.01571481606 0.02300001383 1.198216125e-38
-0.007991919315 0.01576346811 0.02400000095 1.225874814e-38
-0.007637279911 0.01576346811 0.02400000095 1.235094377e-38
-0.007282640507 0.01576346811 0.02400000095 1.262753066e-38
-0.006237915636 0.01581212016 0.02499998808 1.281119885e-38
