# .PCD v0.7 - Point Cloud Data file format
VERSION 0.7
FIELDS x y z rgb
SIZE 4 4 4 4
TYPE F F F F
COUNT 1 1 1 1
WIDTH 804
HEIGHT 1
VIEWPOINT 0 0 0 1 0 0 0
POINTS 804
DATA ascii
0.002696286285 -0.0258364139 0.03000001311 1.428055278e-38
0.003057493099 -0.0258364139 0.03000001311 1.382029349e-38
0.003408340041 -0.02575812041 0.02899999619 1.382029349e-38
0.00376845227 -0.02575812041 0.02899999619 1.483408949e-38
0.004128564499 -0.02575812041 0.02899999619 1.391213319e-38
0.004488676728 -0.02575812041 0.02899999619 1.400541063e-38
0.004834051186 -0.02567982926 0.02800000906 1.437419314e-38
0.005193068863 -0.02567982926 0.02800000906 1.409760625e-38
0.00555208654 -0.02567982926 0.02800000906 1.409760625e-38
0.005893082253 -0.02560153577 0.02699999213 1.391321219e-38
0.006251005345 -0.02560153577 0.02699999213 1.391321219e-38
0.006588717907 -0.02552324462 0.02600000501 1.400540782e-38
0.006945546447 -0.02552324462 0.02600000501 1.391321219e-38
0.007302374988 -0.02552324462 0.02600000501 1.409760345e-38
0.007635708642 -0.02544495113 0.02499998808 1.437419034e-38
0.007991442597 -0.02544495113 0.02499998808 1.446638597e-38
0.008321493263 -0.02536665998 0.02400000095 1.428199471e-38
0.008676132667 -0.02536665998 0.02400000095 1.409760345e-38
0.00903077207 -0.02536665998 0.02400000095 1.437419034e-38
0.009385411474 -0.02536665998 0.02400000095 1.382101656e-38
0.009740050878 -0.02536665998 0.02400000095 1.400540782e-38
0.01009469028 -0.02536665998 0.02400000095 1.400540782e-38
0.01041707908 -0.02528836883 0.02300001383 1.400540782e-38
0.01077062394 -0.02528836883 0.02300001383 1.428199471e-38
0.01112416879 -0.02528836883 0.02300001383 1.400540782e-38
0.01147771364 -0.02528836883 0.02300001383 1.391321219e-38
0.01183125849 -0.02528836883 0.02300001383 1.391321219e-38
0.01214707886 -0.02521007534 0.0219999969 1.409760345e-38
0.01249952912 -0.02521007534 0.0219999969 1.409760345e-38
0.01285197939 -0.02521007534 0.0219999969 1.400540782e-38
0.01320442966 -0.02521007534 0.0219999969 1.391321219e-38
0.01686919108 -0.02489690607 0.01799998879 1.45585844e-38
0.01721726307 -0.02489690607 0.01799998879 1.437419314e-38
0.01751009887 -0.02481861492 0.01700000167 1.428199751e-38
0.01785707632 -0.02481861492 0.01700000167 1.409760625e-38
0.01820405376 -0.02481861492 0.01700000167 1.409725033e-38
0.0185510312 -0.02481861492 0.01700000167 1.40050547e-38
0.01883839424 -0.02474032376 0.01600001454 1.391285907e-38
0.01918427713 -0.02474032376 0.01600001454 1.409725033e-38
0.01953016002 -0.02474032376 0.01600001454 1.428164158e-38
0.01987604291 -0.02474032376 0.01600001454 1.409725033e-38
0.0202219258 -0.02474032376 0.01600001454 1.409725033e-38
0.02056780869 -0.02474032376 0.01600001454 1.409725033e-38
0.0208475079 -0.02466203028 0.01499999762 1.428236045e-38
0.0211922962 -0.02466203028 0.01499999762 1.437455608e-38
0.02153708451 -0.02466203028 0.01499999762 1.446675171e-38
0.02188187281 -0.02466203028 0.01499999762 1.437455608e-38
0.02222666112 -0.02466203028 0.01499999762 1.428199751e-38
0.02249979495 -0.02458373913 0.01400001049 1.345223685e-38
0.02284348871 -0.02458373913 0.01400001049 1.336004122e-38
0.02318718246 -0.02458373913 0.01400001049 1.345223685e-38
0.02345593585 -0.02450544564 0.01299999356 1.363519318e-38
-0.03058848363 -0.02678763965 0.04700000286 1.418510753e-38
-0.03020866921 -0.02678763965 0.04700000286 1.409291191e-38
-0.02991481579 -0.02686483646 0.04799998999 1.409291191e-38
-0.02953390681 -0.02686483646 0.04799998999 1.400071628e-38
-0.02915299784 -0.02686483646 0.04799998999 1.390852065e-38
-0.02885476868 -0.02694203558 0.04900000691 1.363193376e-38
-0.02847276512 -0.02694203558 0.04900000691 1.372412939e-38
-0.0281712498 -0.02701923239 0.04999999404 1.400071347e-38
-0.02778815169 -0.02701923239 0.04999999404 1.400071347e-38
-0.02740505358 -0.02701923239 0.04999999404 1.400071347e-38
-0.02709916236 -0.0270964315 0.05100001097 1.40929091e-38
-0.02671496966 -0.0270964315 0.05100001097 1.390851784e-38
-0.02633077696 -0.0270964315 0.05100001097 1.372412658e-38
-0.0260205052 -0.02717362832 0.05199999809 1.353973532e-38
-0.02563521795 -0.02717362832 0.05199999809 1.261777902e-38
-0.0252499307 -0.02717362832 0.05199999809 1.418511034e-38
-0.02486464345 -0.02717362832 0.05199999809 1.649000108e-38
-0.0244793562 -0.02717362832 0.05199999809 1.53843766e-38
-0.02409406895 -0.02717362832 0.05199999809 1.53843766e-38
-0.0237087817 -0.02717362832 0.05199999809 1.547657223e-38
-0.02332349445 -0.02717362832 0.05199999809 1.566096349e-38
-0.0229382072 -0.02717362832 0.05199999809 1.584535475e-38
-0.02255291995 -0.02717362832 0.05199999809 1.584535475e-38
-0.02210465728 -0.0270964315 0.05100001097 1.575315912e-38
-0.02172046458 -0.0270964315 0.05100001097 1.566096349e-38
-0.02133627188 -0.0270964315 0.05100001097 1.547657503e-38
-0.02095207918 -0.0270964315 0.05100001097 1.566096629e-38
-0.02056788649 -0.0270964315 0.05100001097 1.566096629e-38
-0.02018369379 -0.0270964315 0.05100001097 1.547657503e-38
-0.0197430913 -0.02701923239 0.04999999404 1.584607641e-38
-0.01935999319 -0.02701923239 0.04999999404 1.575388078e-38
-0.01897689507 -0.02701923239 0.04999999404 1.566168515e-38
-0.01854067251 -0.02694203558 0.04900000691 1.529290263e-38
-0.01815866895 -0.02694203558 0.04900000691 1.520142727e-38
-0.01777666538 -0.02694203558 0.04900000691 1.547801416e-38
-0.01734481954 -0.02686483646 0.04799998999 1.538581853e-38
-0.01691516432 -0.02678763965 0.04700000286 1.547801416e-38
-0.0165353499 -0.02678763965 0.04700000286 1.557020979e-38
-0.01610897694 -0.02671044053 0.04599998593 1.538581853e-38
-0.01563933193 -0.0265560469 0.04400001168 1.520142727e-38
-0.01526280119 -0.0265560469 0.04400001168 1.520142727e-38
-0.01484299568 -0.02647884779 0.04299999475 1.520142727e-38
-0.01446755953 -0.02647884779 0.04299999475 1.520142727e-38
-0.01363670638 -0.02632445186 0.0409999907 1.557020979e-38
-0.01326345936 -0.02632445186 0.0409999907 1.557020979e-38
-0.01285241162 -0.02624725504 0.04000000358 1.566240542e-38
-0.0124435519 -0.02617005593 0.03899998665 1.547801416e-38
-0.01207249402 -0.02617005593 0.03899998665 1.520142727e-38
-0.01170143614 -0.02617005593 0.03899998665 1.520142727e-38
-0.01133037826 -0.02617005593 0.03899998665 1.510923164e-38
-0.01095932038 -0.02617005593 0.03899998665 1.520142727e-38
-0.01055702909 -0.02609285912 0.03799999952 1.520142727e-38
-0.01018706576 -0.02609285912 0.03799999952 1.492591938e-38
-0.009817102434 -0.02609285912 0.03799999952 1.492591938e-38
-0.009419189351 -0.0260156623 0.0370000124 1.492591938e-38
-0.009050320576 -0.0260156623 0.0370000124 1.52947019e-38
-0.008681451801 -0.0260156623 0.0370000124 1.492591938e-38
-0.008312583025 -0.0260156623 0.0370000124 1.483372375e-38
-0.007920142 -0.02593846319 0.03599999547 1.483372375e-38
-0.007552367809 -0.02593846319 0.03599999547 1.483372375e-38
-0.007184593619 -0.02593846319 0.03599999547 1.492592218e-38
-0.006816819428 -0.02593846319 0.03599999547 1.483372656e-38
-0.006429851897 -0.02586126637 0.03500000834 1.483337063e-38
-0.006063172259 -0.02586126637 0.03500000834 1.483337063e-38
-0.00569649262 -0.02586126637 0.03500000834 1.464897937e-38
-0.005329812982 -0.02586126637 0.03500000834 1.428019685e-38
-0.004963133343 -0.02586126637 0.03500000834 1.446530697e-38
-0.004582732715 -0.02578406726 0.03399999142 1.45575026e-38
-0.004217147661 -0.02578406726 0.03399999142 1.529506764e-38
-0.003851562607 -0.02578406726 0.03399999142 1.520287201e-38
-0.003475540629 -0.02570687044 0.03300000429 1.511067638e-38
-0.003111050127 -0.02570687044 0.03300000429 1.483408949e-38
-0.002746559625 -0.02570687044 0.03300000429 1.483408949e-38
-0.002382069123 -0.02570687044 0.03300000429 1.464969823e-38
-0.002011519723 -0.02562967133 0.03199998736 1.45575026e-38
-0.001648123806 -0.02562967133 0.03199998736 1.45575026e-38
-0.001284727889 -0.02562967133 0.03199998736 1.464897937e-38
-0.0009213319711 -0.02562967133 0.03199998736 1.464897937e-38
-0.000556255545 -0.02555247451 0.03100000024 1.437239248e-38
-0.0001939541795 -0.02555247451 0.03100000024 1.437239248e-38
0.000168347186 -0.02555247451 0.03100000024 1.455713967e-38
0.0005306485515 -0.02555247451 0.03100000024 1.418835715e-38
0.000892949917 -0.02555247451 0.03100000024 1.437274841e-38
0.001251459031 -0.0254752777 0.03000001311 1.418835715e-38
0.001612665845 -0.0254752777 0.03000001311 1.418835715e-38
0.001973872658 -0.0254752777 0.03000001311 1.428055278e-38
0.002335079472 -0.0254752777 0.03000001311 1.428127164e-38
0.002696286285 -0.0254752777 0.03000001311 1.400468475e-38
0.003057493099 -0.0254752777 0.03000001311 1.391248912e-38
0.003408340041 -0.02539807858 0.02899999619 1.400468475e-38
0.00376845227 -0.02539807858 0.02899999619 1.474189386e-38
0.004128564499 -0.02539807858 0.02899999619 1.428091571e-38
0.004475033509 -0.02532088177 0.02800000906 1.437419034e-38
0.004834051186 -0.02532088177 0.02800000906 1.400540782e-38
0.005193068863 -0.02532088177 0.02800000906 1.428199471e-38
0.00555208654 -0.02532088177 0.02800000906 1.428199471e-38
0.005893082253 -0.02524368266 0.02699999213 1.409760345e-38
0.006251005345 -0.02524368266 0.02699999213 1.437419034e-38
0.006588717907 -0.02516648584 0.02600000501 1.428199471e-38
0.006945546447 -0.02516648584 0.02600000501 1.409760345e-38
0.007302374988 -0.02516648584 0.02600000501 1.400540782e-38
0.007635708642 -0.02508928673 0.02499998808 1.409760345e-38
0.007991442597 -0.02508928673 0.02499998808 1.446638597e-38
0.008321493263 -0.02501208991 0.02400000095 1.428199471e-38
0.008676132667 -0.02501208991 0.02400000095 1.400540782e-38
0.00903077207 -0.02501208991 0.02400000095 1.409760345e-38
0.009385411474 -0.02501208991 0.02400000095 1.409760345e-38
0.009740050878 -0.02501208991 0.02400000095 1.400540782e-38
0.01009469028 -0.02501208991 0.02400000095 1.400540782e-38
0.01041707908 -0.0249348931 0.02300001383 1.409760345e-38
0.01077062394 -0.0249348931 0.02300001383 1.409760345e-38
0.01112416879 -0.0249348931 0.02300001383 1.400540782e-38
0.01147771364 -0.0249348931 0.02300001383 1.400540782e-38
0.01183125849 -0.0249348931 0.02300001383 1.391321219e-38
0.01214707886 -0.02485769398 0.0219999969 1.391321219e-38
0.01249952912 -0.02485769398 0.0219999969 1.409760345e-38
0.01285197939 -0.02485769398 0.0219999969 1.400540782e-38
0.01320442966 -0.02485769398 0.0219999969 1.391321219e-38
0.01355687993 -0.02485769398 0.0219999969 1.36366253e-38
0.01652111908 -0.02454890212 0.01799998879 1.345223685e-38
0.01686919108 -0.02454890212 0.01799998879 1.428199751e-38
0.01721726307 -0.02454890212 0.01799998879 1.437419314e-38
0.01751009887 -0.02447170531 0.01700000167 1.428199751e-38
0.01785707632 -0.02447170531 0.01700000167 1.400541063e-38
0.01820405376 -0.02447170531 0.01700000167 1.409725033e-38
0.0185510312 -0.02447170531 0.01700000167 1.428164158e-38
0.01883839424 -0.0243945085 0.01600001454 1.428164158e-38
0.01918427713 -0.0243945085 0.01600001454 1.409725033e-38
0.01953016002 -0.0243945085 0.01600001454 1.40050547e-38
0.01987604291 -0.0243945085 0.01600001454 1.372846781e-38
0.0202219258 -0.0243945085 0.01600001454 1.40050547e-38
0.02050271959 -0.02431730938 0.01499999762 1.437383721e-38
0.0208475079 -0.02431730938 0.01499999762 1.483553423e-38
0.0211922962 -0.02431730938 0.01499999762 1.455894734e-38
0.02153708451 -0.02431730938 0.01499999762 1.446675171e-38
0.02181240745 -0.02424011257 0.01400001049 1.446675171e-38
0.0221561012 -0.02424011257 0.01400001049 1.455822847e-38
0.02249979495 -0.02424011257 0.01400001049 1.345188092e-38
0.02284348871 -0.02424011257 0.01400001049 1.345188092e-38
0.02318718246 -0.02424011257 0.01400001049 1.363627218e-38
0.02345593585 -0.02416291345 0.01299999356 1.40039757e-38
-0.03058848363 -0.02640789948 0.04700000286 1.418511034e-38
-0.03020866921 -0.02640789948 0.04700000286 1.418510753e-38
-0.02991481579 -0.02648400195 0.04799998999 1.400071628e-38
-0.02953390681 -0.02648400195 0.04799998999 1.418510753e-38
-0.02915299784 -0.02648400195 0.04799998999 1.400071628e-38
-0.02885476868 -0.0265601067 0.04900000691 1.363193376e-38
-0.02847276512 -0.0265601067 0.04900000691 1.390852065e-38
-0.0281712498 -0.02663620917 0.04999999404 1.400071628e-38
-0.02778815169 -0.02663620917 0.04999999404 1.400071628e-38
-0.02740505358 -0.02663620917 0.04999999404 1.400071347e-38
-0.02709916236 -0.02671231392 0.05100001097 1.400071347e-38
-0.02671496966 -0.02671231392 0.05100001097 1.390851784e-38
-0.02633077696 -0.02671231392 0.05100001097 1.390851784e-38
-0.0260205052 -0.02678841639 0.05199999809 1.390852065e-38
-0.02563521795 -0.02678841639 0.05199999809 1.280217309e-38
-0.0252499307 -0.02678841639 0.05199999809 1.372413219e-38
-0.02486464345 -0.02678841639 0.05199999809 1.68587836e-38
-0.0244793562 -0.02678841639 0.05199999809 1.538473253e-38
-0.02409406895 -0.02678841639 0.05199999809 1.52925369e-38
-0.0237087817 -0.02678841639 0.05199999809 1.566096349e-38
-0.02332349445 -0.02678841639 0.05199999809 1.575315912e-38
-0.0229382072 -0.02678841639 0.05199999809 1.575387798e-38
-0.02255291995 -0.02678841639 0.05199999809 1.566168235e-38
-0.0221676327 -0.02678841639 0.05199999809 1.566168235e-38
-0.02172046458 -0.02671231392 0.05100001097 1.556948672e-38
-0.02133627188 -0.02671231392 0.05100001097 1.538509826e-38
-0.02095207918 -0.02671231392 0.05100001097 1.510851137e-38
-0.02056788649 -0.02671231392 0.05100001097 1.529290263e-38
-0.02018369379 -0.02671231392 0.05100001097 1.566168515e-38
-0.0197430913 -0.02663620917 0.04999999404 1.584607641e-38
-0.01935999319 -0.02663620917 0.04999999404 1.584607641e-38
-0.01897689507 -0.02663620917 0.04999999404 1.575388078e-38
-0.01854067251 -0.0265601067 0.04900000691 1.538509826e-38
-0.01815866895 -0.0265601067 0.04900000691 1.538581853e-38
-0.01777666538 -0.0265601067 0.04900000691 1.547801416e-38
-0.01734481954 -0.02648400195 0.04799998999 1.520142727e-38
-0.01691516432 -0.02640789948 0.04700000286 1.520142727e-38
-0.0165353499 -0.02640789948 0.04700000286 1.547801416e-38
-0.01610897694 -0.02633179473 0.04599998593 1.557020979e-38
-0.01563933193 -0.02617958978 0.04400001168 1.557020979e-38
-0.01526280119 -0.02617958978 0.04400001168 1.566240542e-38
-0.01484299568 -0.02610348504 0.04299999475 1.547801416e-38
-0.01446755953 -0.02610348504 0.04299999475 1.520142727e-38
-0.01363670638 -0.02595127782 0.0409999907 1.547801416e-38
-0.01326345936 -0.02595127782 0.0409999907 1.584679668e-38
-0.01285241162 -0.02587517534 0.04000000358 1.557020979e-38
-0.01248025916 -0.02587517534 0.04000000358 1.538581853e-38
-0.0121081067 -0.02587517534 0.04000000358 1.520142727e-38
-0.01170143614 -0.02579907059 0.03899998665 1.510923164e-38
-0.01133037826 -0.02579907059 0.03899998665 1.510923164e-38
-0.01095932038 -0.02579907059 0.03899998665 1.492591938e-38
-0.0105882625 -0.02579907059 0.03899998665 1.501811501e-38
-0.01018706576 -0.02572296812 0.03799999952 1.501811501e-38
-0.009817102434 -0.02572296812 0.03799999952 1.492591938e-38
-0.009447139107 -0.02572296812 0.03799999952 1.520250627e-38
-0.009050320576 -0.02564686564 0.0370000124 1.557128879e-38
-0.008681451801 -0.02564686564 0.0370000124 1.538689753e-38
-0.008312583025 -0.02564686564 0.0370000124 1.538689753e-38
-0.00794371425 -0.02564686564 0.0370000124 1.501811501e-38
-0.007552367809 -0.0255707609 0.03599999547 1.492591938e-38
-0.007184593619 -0.0255707609 0.03599999547 1.492592218e-38
-0.006816819428 -0.0255707609 0.03599999547 1.483372656e-38
-0.006429851897 -0.02549465842 0.03500000834 1.474153093e-38
-0.006063172259 -0.02549465842 0.03500000834 1.474153093e-38
-0.00569649262 -0.02549465842 0.03500000834 1.474189386e-38
-0.005329812982 -0.02549465842 0.03500000834 1.45575026e-38
-0.004963133343 -0.02549465842 0.03500000834 1.446530697e-38
-0.004582732715 -0.02541855368 0.03399999142 1.464969823e-38
-0.004217147661 -0.02541855368 0.03399999142 1.483408949e-38
-0.003851562607 -0.02541855368 0.03399999142 1.511067638e-38
-0.003475540629 -0.0253424512 0.03300000429 1.492628512e-38
-0.003111050127 -0.0253424512 0.03300000429 1.474189386e-38
-0.002746559625 -0.0253424512 0.03300000429 1.474189386e-38
-0.002382069123 -0.0253424512 0.03300000429 1.464969823e-38
-0.002011519723 -0.02526634646 0.03199998736 1.45575026e-38
-0.001648123806 -0.02526634646 0.03199998736 1.446530697e-38
-0.001284727889 -0.02526634646 0.03199998736 1.446530697e-38
-0.0009213319711 -0.02526634646 0.03199998736 1.45575026e-38
-0.000556255545 -0.02519024398 0.03100000024 1.455678374e-38
-0.0001939541795 -0.02519024398 0.03100000024 1.464897937e-38
0.000168347186 -0.02519024398 0.03100000024 1.46493353e-38
0.0005290454043 -0.0251141415 0.03000001311 1.455713967e-38
0.0008902522178 -0.0251141415 0.03000001311 1.455713967e-38
0.001251459031 -0.0251141415 0.03000001311 1.428055278e-38
0.001612665845 -0.0251141415 0.03000001311 1.455713967e-38
0.001973872658 -0.0251141415 0.03000001311 1.428055278e-38
0.002335079472 -0.0251141415 0.03000001311 1.428055278e-38
0.002688115583 -0.02503803676 0.02899999619 1.428055278e-38
0.003048227812 -0.02503803676 0.02899999619 1.44656629e-38
0.003408340041 -0.02503803676 0.02899999619 1.455785853e-38
0.00376845227 -0.02503803676 0.02899999619 1.44656629e-38
0.004128564499 -0.02503803676 0.02899999619 1.391248912e-38
0.004475033509 -0.02496193428 0.02800000906 1.363698123e-38
0.004834051186 -0.02496193428 0.02800000906 1.372917686e-38
0.005193068863 -0.02496193428 0.02800000906 1.428235064e-38
0.00553515916 -0.02488582954 0.02699999213 1.44667419e-38
0.005893082253 -0.02488582954 0.02699999213 1.437454627e-38
0.006251005345 -0.02488582954 0.02699999213 1.391356812e-38
0.006588717907 -0.02480972706 0.02600000501 1.400576375e-38
0.006945546447 -0.02480972706 0.02600000501 1.409795938e-38
0.007302374988 -0.02480972706 0.02600000501 1.335895941e-38
0.007635708642 -0.02473362232 0.02499998808 1.391213319e-38
0.007991442597 -0.02473362232 0.02499998808 1.409652445e-38
0.008321493263 -0.02465751984 0.02400000095 1.409652445e-38
0.008676132667 -0.02465751984 0.02400000095 1.409652445e-38
0.00903077207 -0.02465751984 0.02400000095 1.428091571e-38
0.009385411474 -0.02465751984 0.02400000095 1.446530697e-38
0.009740050878 -0.02465751984 0.02400000095 1.428091571e-38
0.01009469028 -0.02465751984 0.02400000095 1.345115504e-38
0.01041707908 -0.02458141737 0.02300001383 1.409652445e-38
0.01077062394 -0.02458141737 0.02300001383 1.428127164e-38
0.01112416879 -0.02458141737 0.02300001383 1.409688038e-38
0.01147771364 -0.02458141737 0.02300001383 1.391321219e-38
0.01183125849 -0.02458141737 0.02300001383 1.391321219e-38
0.01214707886 -0.02450531262 0.0219999969 1.400540782e-38
0.01249952912 -0.02450531262 0.0219999969 1.428199471e-38
0.01285197939 -0.02450531262 0.0219999969 1.428199471e-38
0.01320442966 -0.02450531262 0.0219999969 1.391321219e-38
0.01351477836 -0.02442921015 0.02100000978 1.345223404e-38
0.01386613407 -0.02442921015 0.02100000978 1.382101656e-38
0.01421748979 -0.02442921015 0.02100000978 1.428199471e-38
0.01452345892 -0.0243531054 0.01999999285 1.465077723e-38
0.01487372005 -0.0243531054 0.01999999285 1.474297286e-38
0.01522398119 -0.0243531054 0.01999999285 1.391321219e-38
0.01552557343 -0.02427700292 0.01900000572 1.409760625e-38
0.01587474001 -0.02427700292 0.01900000572 1.428199751e-38
0.01617304709 -0.02420089818 0.01799998879 1.409760625e-38
0.01652111908 -0.02420089818 0.01799998879 1.409760625e-38
0.01686919108 -0.02420089818 0.01799998879 1.428199751e-38
0.01721726307 -0.02420089818 0.01799998879 1.428199751e-38
0.01751009887 -0.0241247957 0.01700000167 1.409760625e-38
0.01785707632 -0.0241247957 0.01700000167 1.400541063e-38
0.01820405376 -0.0241247957 0.01700000167 1.428199751e-38
0.0185510312 -0.0241247957 0.01700000167 1.437419314e-38
0.01883839424 -0.02404869323 0.01600001454 1.409760625e-38
0.01918427713 -0.02404869323 0.01600001454 1.3913215e-38
0.01953016002 -0.02404869323 0.01600001454 1.3913215e-38
0.01987604291 -0.02404869323 0.01600001454 1.428199751e-38
0.0202219258 -0.02404869323 0.01600001454 1.455822847e-38
0.02050271959 -0.02397258848 0.01499999762 1.455822847e-38
0.0208475079 -0.02397258848 0.01499999762 1.446675171e-38
0.0211922962 -0.02397258848 0.01499999762 1.455894734e-38
0.02153708451 -0.02397258848 0.01499999762 1.428236045e-38
0.02181240745 -0.02389648601 0.01400001049 1.419016482e-38
0.0221561012 -0.02389648601 0.01400001049 1.391357793e-38
0.02249979495 -0.02389648601 0.01400001049 1.336040415e-38
0.02284348871 -0.02389648601 0.01400001049 1.372846781e-38
0.02318718246 -0.02389648601 0.01400001049 1.391285907e-38
0.02345593585 -0.02382038126 0.01299999356 1.372847061e-38
-0.03058848363 -0.02602815931 0.04700000286 1.409291471e-38
-0.03020866921 -0.02602815931 0.04700000286 1.409291471e-38
-0.02991481579 -0.02610316745 0.04799998999 1.400071908e-38
-0.02953390681 -0.02610316745 0.04799998999 1.409291471e-38
-0.02915299784 -0.02610316745 0.04799998999 1.353974093e-38
-0.02885476868 -0.02617817782 0.04900000691 1.372412939e-38
-0.02847276512 -0.02617817782 0.04900000691 1.400071628e-38
-0.0281712498 -0.02625318596 0.04999999404 1.390852065e-38
-0.02778815169 -0.02625318596 0.04999999404 1.409291191e-38
-0.02740505358 -0.02625318596 0.04999999404 1.40929091e-38
-0.02709916236 -0.02632819633 0.05100001097 1.40929091e-38
-0.02671496966 -0.02632819633 0.05100001097 1.400071347e-38
-0.02633077696 -0.02632819633 0.05100001097 1.390851784e-38
-0.0260205052 -0.02640320447 0.05199999809 1.400071628e-38
-0.02563521795 -0.02640320447 0.05199999809 1.289436872e-38
-0.0252499307 -0.02640320447 0.05199999809 1.400036315e-38
-0.02486464345 -0.02640320447 0.05199999809 1.6028667e-38
-0.0244793562 -0.02640320447 0.05199999809 1.519998534e-38
-0.02409406895 -0.02640320447 0.05199999809 1.53843766e-38
-0.0237087817 -0.02640320447 0.05199999809 1.566096349e-38
-0.02332349445 -0.02640320447 0.05199999809 1.575315912e-38
-0.0229382072 -0.02640320447 0.05199999809 1.584607361e-38
-0.02255291995 -0.02640320447 0.05199999809 1.575387798e-38
-0.0221676327 -0.02640320447 0.05199999809 1.566168235e-38
-0.02172046458 -0.02632819633 0.05100001097 1.556948672e-38
-0.02133627188 -0.02632819633 0.05100001097 1.556948952e-38
-0.02095207918 -0.02632819633 0.05100001097 1.510851137e-38
-0.02056788649 -0.02632819633 0.05100001097 1.5200707e-38
-0.02018369379 -0.02632819633 0.05100001097 1.566168515e-38
-0.0197430913 -0.02625318596 0.04999999404 1.575388078e-38
-0.01930467963 -0.02617817782 0.04900000691 1.584607641e-38
-0.01892267607 -0.02617817782 0.04900000691 1.575388078e-38
-0.01854067251 -0.02617817782 0.04900000691 1.566168515e-38
-0.01815866895 -0.02617817782 0.04900000691 1.492484038e-38
-0.01777666538 -0.02617817782 0.04900000691 1.510923164e-38
-0.01734481954 -0.02610316745 0.04799998999 1.538581853e-38
-0.01691516432 -0.02602815931 0.04700000286 1.520142727e-38
-0.0165353499 -0.02602815931 0.04700000286 1.538581853e-38
-0.01610897694 -0.02595314893 0.04599998593 1.547801416e-38
-0.01568479452 -0.0258781408 0.04499999881 1.557020979e-38
-0.01530716923 -0.0258781408 0.04499999881 1.538581853e-38
-0.01492954394 -0.0258781408 0.04499999881 1.538581853e-38
-0.0136766974 -0.02565311415 0.04200000763 1.538581853e-38
-0.0133023558 -0.02565311415 0.04200000763 1.62155792e-38
-0.01289021235 -0.02557810377 0.0409999907 1.538581853e-38
-0.01248025916 -0.02550309563 0.04000000358 1.520142727e-38
-0.0121081067 -0.02550309563 0.04000000358 1.492484038e-38
-0.01170143614 -0.02542808526 0.03899998665 1.492484038e-38
-0.01133037826 -0.02542808526 0.03899998665 1.492484038e-38
-0.01095932038 -0.02542808526 0.03899998665 1.474152812e-38
-0.0105882625 -0.02542808526 0.03899998665 1.538689753e-38
-0.01021720462 -0.02542808526 0.03899998665 1.557128879e-38
-0.009817102434 -0.02535307712 0.03799999952 1.474152812e-38
-0.009447139107 -0.02535307712 0.03799999952 1.557128879e-38
-0.00907717578 -0.02535307712 0.03799999952 1.538689753e-38
-0.008681451801 -0.02527806898 0.0370000124 1.557128879e-38
-0.008312583025 -0.02527806898 0.0370000124 1.52947019e-38
-0.00794371425 -0.02527806898 0.0370000124 1.483372375e-38
-0.007552367809 -0.02520305861 0.03599999547 1.501811501e-38
-0.007184593619 -0.02520305861 0.03599999547 1.492592218e-38
-0.006816819428 -0.02520305861 0.03599999547 1.46493353e-38
-0.006449045238 -0.02520305861 0.03599999547 1.464897937e-38
-0.006081271047 -0.02520305861 0.03599999547 1.501776189e-38
-0.00569649262 -0.02512805047 0.03500000834 1.511067638e-38
-0.005329812982 -0.02512805047 0.03500000834 1.483408949e-38
-0.004963133343 -0.02512805047 0.03500000834 1.464969823e-38
-0.004582732715 -0.0250530401 0.03399999142 1.446530697e-38
-0.004217147661 -0.0250530401 0.03399999142 1.409652445e-38
-0.003851562607 -0.0250530401 0.03399999142 1.474189386e-38
-0.003485977553 -0.0250530401 0.03399999142 1.483408949e-38
-0.003111050127 -0.02497803196 0.03300000429 1.474189386e-38
-0.002746559625 -0.02497803196 0.03300000429 1.474189386e-38
-0.002382069123 -0.02497803196 0.03300000429 1.464969823e-38
-0.002017578621 -0.02497803196 0.03300000429 1.455785853e-38
-0.001648123806 -0.02490302159 0.03199998736 1.455785853e-38
-0.001284727889 -0.02490302159 0.03199998736 1.455785853e-38
-0.0009213319711 -0.02490302159 0.03199998736 1.455785853e-38
-0.000556255545 -0.02482801345 0.03100000024 1.455785853e-38
-0.0001939541795 -0.02482801345 0.03100000024 1.474224979e-38
0.000168347186 -0.02482801345 0.03100000024 1.455785853e-38
0.0005290454043 -0.02475300531 0.03000001311 1.428127164e-38
0.0008902522178 -0.02475300531 0.03000001311 1.428127164e-38
0.001251459031 -0.02475300531 0.03000001311 1.428127164e-38
0.001612665845 -0.02475300531 0.03000001311 1.44656629e-38
0.001973872658 -0.02475300531 0.03000001311 1.428127164e-38
0.002335079472 -0.02475300531 0.03000001311 1.428127164e-38
0.002688115583 -0.02467799493 0.02899999619 1.428127164e-38
0.003048227812 -0.02467799493 0.02899999619 1.44656629e-38
0.003408340041 -0.02467799493 0.02899999619 1.44656629e-38
0.00376845227 -0.02467799493 0.02899999619 1.428127164e-38
0.004128564499 -0.02467799493 0.02899999619 1.418907601e-38
0.004475033509 -0.0246029868 0.02800000906 1.465005416e-38
0.004834051186 -0.0246029868 0.02800000906 1.474224979e-38
0.005193068863 -0.0246029868 0.02800000906 1.465005416e-38
0.00553515916 -0.02452797642 0.02699999213 1.465005416e-38
0.005893082253 -0.02452797642 0.02699999213 1.428127164e-38
0.006251005345 -0.02452797642 0.02699999213 1.409688038e-38
0.006588717907 -0.02445296828 0.02600000501 1.400432882e-38
0.006945546447 -0.02445296828 0.02600000501 1.409652445e-38
0.007302374988 -0.02445296828 0.02600000501 1.36355463e-38
0.007635708642 -0.02437795791 0.02499998808 1.36355463e-38
0.007991442597 -0.02437795791 0.02499998808 1.400432882e-38
0.008347176553 -0.02437795791 0.02499998808 1.428091571e-38
0.008702910509 -0.02437795791 0.02499998808 1.428091571e-38
0.00903077207 -0.02430294977 0.02400000095 1.45575026e-38
0.009385411474 -0.02430294977 0.02400000095 1.381993756e-38
0.009740050878 -0.02430294977 0.02400000095 1.354335067e-38
0.01009469028 -0.02430294977 0.02400000095 1.381993756e-38
0.01041707908 -0.02422794163 0.02300001383 1.391213319e-38
0.01077062394 -0.02422794163 0.02300001383 1.418907601e-38
0.01112416879 -0.02422794163 0.02300001383 1.409688038e-38
0.01147771364 -0.02422794163 0.02300001383 1.400468475e-38
0.01183125849 -0.02422794163 0.02300001383 1.409688038e-38
0.01214707886 -0.02415293126 0.0219999969 1.382137249e-38
0.01249952912 -0.02415293126 0.0219999969 1.400576375e-38
0.01285197939 -0.02415293126 0.0219999969 1.409795938e-38
0.01320442966 -0.02415293126 0.0219999969 1.428235064e-38
0.01351477836 -0.02407792312 0.02100000978 1.345258997e-38
0.01386613407 -0.02407792312 0.02100000978 1.372917686e-38
0.01421748979 -0.02407792312 0.02100000978 1.400540782e-38
0.01452345892 -0.02400291275 0.01999999285 1.428199471e-38
0.01487372005 -0.02400291275 0.01999999285 1.437419034e-38
0.01522398119 -0.02400291275 0.01999999285 1.409760345e-38
0.01552557343 -0.02392790461 0.01900000572 1.382101656e-38
0.01587474001 -0.02392790461 0.01900000572 1.382101656e-38
0.01617304709 -0.02385289424 0.01799998879 1.428199751e-38
0.01652111908 -0.02385289424 0.01799998879 1.446638877e-38
0.01686919108 -0.02385289424 0.01799998879 1.446638877e-38
0.01721726307 -0.02385289424 0.01799998879 1.465078003e-38
0.01751009887 -0.0237778861 0.01700000167 1.428199751e-38
0.01785707632 -0.0237778861 0.01700000167 1.409760625e-38
0.01820405376 -0.0237778861 0.01700000167 1.428199751e-38
0.0185510312 -0.0237778861 0.01700000167 1.409760625e-38
0.01883839424 -0.02370287796 0.01600001454 1.409760625e-38
0.01918427713 -0.02370287796 0.01600001454 1.428199751e-38
0.01953016002 -0.02370287796 0.01600001454 1.418872288e-38
0.01987604291 -0.02370287796 0.01600001454 1.474189666e-38
0.0202219258 -0.02370287796 0.01600001454 1.45585844e-38
0.02050271959 -0.02362786759 0.01499999762 1.446638877e-38
0.0208475079 -0.02362786759 0.01499999762 1.455930327e-38
0.0211922962 -0.02362786759 0.01499999762 1.446710764e-38
0.02153708451 -0.02362786759 0.01499999762 1.446710764e-38
0.02181240745 -0.02355285945 0.01400001049 1.455930327e-38
0.0221561012 -0.02355285945 0.01400001049 1.372918667e-38
0.02249979495 -0.02355285945 0.01400001049 1.326820852e-38
0.02284348871 -0.02355285945 0.01400001049 1.391357793e-38
0.02318718246 -0.02355285945 0.01400001049 1.419016482e-38
0.02345593585 -0.02347784907 0.01299999356 1.409725313e-38
-0.03067663375 -0.02572233294 0.04799998999 1.409399371e-38
-0.03029572477 -0.02572233294 0.04799998999 1.427730597e-38
-0.02991481579 -0.02572233294 0.04799998999 1.409291471e-38
-0.02953390681 -0.02572233294 0.04799998999 1.363193656e-38
-0.02915299784 -0.02572233294 0.04799998999 1.363193656e-38
-0.02885476868 -0.02579624894 0.04900000691 1.372412939e-38
-0.02847276512 -0.02579624894 0.04900000691 1.390852065e-38
-0.0281712498 -0.02587016274 0.04999999404 1.372412939e-38
-0.02778815169 -0.02587016274 0.04999999404 1.400071628e-38
-0.02740505358 -0.02587016274 0.04999999404 1.400071347e-38
-0.02709916236 -0.02594407875 0.05100001097 1.390851784e-38
-0.0267910797 -0.02601799255 0.05199999809 1.390851784e-38
-0.02640579245 -0.02601799255 0.05199999809 1.372412658e-38
-0.0260205052 -0.02601799255 0.05199999809 1.353973813e-38
-0.02563521795 -0.02601799255 0.05199999809 1.270997746e-38
-0.0252499307 -0.02601799255 0.05199999809 1.483012382e-38
-0.02486464345 -0.02601799255 0.05199999809 1.593647138e-38
-0.0244793562 -0.02601799255 0.05199999809 1.519998534e-38
-0.02409406895 -0.02601799255 0.05199999809 1.53843766e-38
-0.0237087817 -0.02601799255 0.05199999809 1.566096349e-38
-0.02332349445 -0.02601799255 0.05199999809 1.584535475e-38
-0.0229382072 -0.02601799255 0.05199999809 1.584607361e-38
-0.02255291995 -0.02601799255 0.05199999809 1.584607361e-38
-0.0221676327 -0.02601799255 0.05199999809 1.566240262e-38
-0.02172046458 -0.02594407875 0.05100001097 1.566240262e-38
-0.02133627188 -0.02594407875 0.05100001097 1.575460105e-38
-0.02095207918 -0.02594407875 0.05100001097 1.566240542e-38
-0.02056788649 -0.02594407875 0.05100001097 1.566240542e-38
-0.02018369379 -0.02594407875 0.05100001097 1.547801416e-38
-0.0197430913 -0.02587016274 0.04999999404 1.547801416e-38
-0.01930467963 -0.02579624894 0.04900000691 1.547801416e-38
-0.01892267607 -0.02579624894 0.04900000691 1.547801416e-38
-0.01854067251 -0.02579624894 0.04900000691 1.547801416e-38
-0.01815866895 -0.02579624894 0.04900000691 1.575460105e-38
-0.01777666538 -0.02579624894 0.04900000691 1.547801416e-38
-0.01734481954 -0.02572233294 0.04799998999 1.547801416e-38
-0.01691516432 -0.02564841914 0.04700000286 1.557020979e-38
-0.0165353499 -0.02564841914 0.04700000286 1.547801416e-38
-0.01610897694 -0.02557450314 0.04599998593 1.547801416e-38
-0.01568479452 -0.02550058934 0.04499999881 1.557020979e-38
-0.01530716923 -0.02550058934 0.04499999881 1.557020979e-38
-0.01492954394 -0.02550058934 0.04499999881 1.520142727e-38
-0.0136766974 -0.02527884573 0.04200000763 1.520142727e-38
-0.0133023558 -0.02527884573 0.04200000763 1.547801416e-38
-0.01289021235 -0.02520492973 0.0409999907 1.538581853e-38
-0.01248025916 -0.02513101593 0.04000000358 1.520142727e-38
-0.0121081067 -0.02513101593 0.04000000358 1.510923164e-38
-0.01173595423 -0.02513101593 0.04000000358 1.492484038e-38
-0.01136380177 -0.02513101593 0.04000000358 1.520142727e-38
-0.01095932038 -0.02505709992 0.03899998665 1.501811501e-38
-0.0105882625 -0.02505709992 0.03899998665 1.557128879e-38
-0.01021720462 -0.02505709992 0.03899998665 1.612446537e-38
-0.009846146742 -0.02505709992 0.03899998665 1.455713967e-38
-0.009475088863 -0.02505709992 0.03899998665 1.455785853e-38
-0.00907717578 -0.02498318612 0.03799999952 1.465005416e-38
-0.008707212453 -0.02498318612 0.03799999952 1.474153093e-38
-0.008337249125 -0.02498318612 0.03799999952 1.483372656e-38
-0.00794371425 -0.02490927232 0.0370000124 1.474153093e-38
-0.007574845475 -0.02490927232 0.0370000124 1.501811781e-38
-0.0072059767 -0.02490927232 0.0370000124 1.501811781e-38
-0.006816819428 -0.02483535632 0.03599999547 1.483372656e-38
-0.006449045238 -0.02483535632 0.03599999547 1.465005416e-38
-0.006081271047 -0.02483535632 0.03599999547 1.474224979e-38
-0.00569649262 -0.02476144252 0.03500000834 1.474189386e-38
-0.005329812982 -0.02476144252 0.03500000834 1.474189386e-38
-0.004963133343 -0.02476144252 0.03500000834 1.474189386e-38
-0.004582732715 -0.02468752652 0.03399999142 1.446530697e-38
-0.004217147661 -0.02468752652 0.03399999142 1.400432882e-38
-0.003851562607 -0.02468752652 0.03399999142 1.45575026e-38
-0.003485977553 -0.02468752652 0.03399999142 1.492628512e-38
-0.003111050127 -0.02461361272 0.03300000429 1.483408949e-38
-0.002746559625 -0.02461361272 0.03300000429 1.483408949e-38
-0.002382069123 -0.02461361272 0.03300000429 1.474189386e-38
-0.002011519723 -0.02453969671 0.03199998736 1.409688038e-38
-0.001648123806 -0.02453969671 0.03199998736 1.428127164e-38
-0.001284727889 -0.02453969671 0.03199998736 1.428127164e-38
-0.0009213319711 -0.02453969671 0.03199998736 1.44656629e-38
-0.000556255545 -0.02446578291 0.03100000024 1.465005416e-38
-0.0001939541795 -0.02446578291 0.03100000024 1.363590223e-38
0.000168347186 -0.02446578291 0.03100000024 1.409688038e-38
0.0005290454043 -0.02439186911 0.03000001311 1.428127164e-38
0.0008902522178 -0.02439186911 0.03000001311 1.44656629e-38
0.001251459031 -0.02439186911 0.03000001311 1.428127164e-38
0.001612665845 -0.02439186911 0.03000001311 1.44656629e-38
0.001973872658 -0.02439186911 0.03000001311 1.428127164e-38
0.002328003354 -0.02431795311 0.02899999619 1.418907601e-38
0.002688115583 -0.02431795311 0.02899999619 1.44656629e-38
0.003048227812 -0.02431795311 0.02899999619 1.44656629e-38
0.003408340041 -0.02431795311 0.02899999619 1.418907601e-38
0.003756998155 -0.02424403931 0.02800000906 1.400468475e-38
0.004116015832 -0.02424403931 0.02800000906 1.391248912e-38
0.004475033509 -0.02424403931 0.02800000906 1.418907601e-38
0.004834051186 -0.02424403931 0.02800000906 1.44656629e-38
0.005193068863 -0.02424403931 0.02800000906 1.44656629e-38
0.00553515916 -0.02417012331 0.02699999213 1.391248912e-38
0.005893082253 -0.02417012331 0.02699999213 1.409688038e-38
0.006251005345 -0.02417012331 0.02699999213 1.418907601e-38
0.006588717907 -0.02409620951 0.02600000501 1.400468475e-38
0.006945546447 -0.02409620951 0.02600000501 1.418907601e-38
0.007279974686 -0.0240222935 0.02499998808 1.381993756e-38
0.007635708642 -0.0240222935 0.02499998808 1.391213319e-38
0.007991442597 -0.0240222935 0.02499998808 1.474189386e-38
0.008347176553 -0.0240222935 0.02499998808 1.409652445e-38
0.008702910509 -0.0240222935 0.02499998808 1.400432882e-38
0.00903077207 -0.0239483797 0.02400000095 1.381993756e-38
0.009385411474 -0.0239483797 0.02400000095 1.381993756e-38
0.009740050878 -0.0239483797 0.02400000095 1.36355463e-38
0.01009469028 -0.0239483797 0.02400000095 1.391248912e-38
0.01041707908 -0.0238744659 0.02300001383 1.391248912e-38
0.01077062394 -0.0238744659 0.02300001383 1.409688038e-38
0.01112416879 -0.0238744659 0.02300001383 1.409688038e-38
0.01147771364 -0.0238744659 0.02300001383 1.391248912e-38
0.01183125849 -0.0238744659 0.02300001383 1.391248912e-38
0.01214707886 -0.0238005499 0.0219999969 1.391248912e-38
0.01249952912 -0.0238005499 0.0219999969 1.391248912e-38
0.01285197939 -0.0238005499 0.0219999969 1.400468475e-38
0.01316342264 -0.0237266361 0.02100000978 1.418907601e-38
0.01351477836 -0.0237266361 0.02100000978 1.409688038e-38
0.01386613407 -0.0237266361 0.02100000978 1.391248912e-38
0.01421748979 -0.0237266361 0.02100000978 1.391321219e-38
0.01452345892 -0.0236527201 0.01999999285 1.400540782e-38
0.01487372005 -0.0236527201 0.01999999285 1.391321219e-38
0.01522398119 -0.0236527201 0.01999999285 1.428199471e-38
0.01552557343 -0.0235788063 0.01900000572 1.400540782e-38
0.01587474001 -0.0235788063 0.01900000572 1.400540782e-38
0.01617304709 -0.02350489029 0.01799998879 1.409760345e-38
0.01652111908 -0.02350489029 0.01799998879 1.382101656e-38
0.01686919108 -0.02350489029 0.01799998879 1.400540782e-38
0.01721726307 -0.02350489029 0.01799998879 1.428199471e-38
0.01751009887 -0.02343097649 0.01700000167 1.400541063e-38
0.01785707632 -0.02343097649 0.01700000167 1.409760625e-38
0.01820405376 -0.02343097649 0.01700000167 1.428199751e-38
0.0185510312 -0.02343097649 0.01700000167 1.428199751e-38
0.01883839424 -0.02335706269 0.01600001454 1.428199751e-38
0.01918427713 -0.02335706269 0.01600001454 1.45585844e-38
0.01953016002 -0.02335706269 0.01600001454 1.3912136e-38
0.01981314298 -0.02328314669 0.01499999762 1.446530977e-38
0.02015793129 -0.02328314669 0.01499999762 1.372882374e-38
0.02050271959 -0.02328314669 0.01499999762 1.400541063e-38
0.0208475079 -0.02328314669 0.01499999762 1.437491201e-38
0.0211922962 -0.02328314669 0.01499999762 1.437491201e-38
0.02146871369 -0.02320923289 0.01400001049 1.446710764e-38
0.02181240745 -0.02320923289 0.01400001049 1.419052075e-38
0.0221561012 -0.02320923289 0.01400001049 1.336076008e-38
0.02249979495 -0.02320923289 0.01400001049 1.354515134e-38
0.02277073751 -0.02313531688 0.01299999356 1.391285907e-38
0.02311333668 -0.02313531688 0.01299999356 1.428164158e-38
0.02345593585 -0.02313531688 0.01299999356 1.400577356e-38
-0.03058848363 -0.02526867897 0.04700000286 1.390960245e-38
-0.03020866921 -0.02526867897 0.04700000286 1.418511034e-38
-0.02991481579 -0.02534149843 0.04799998999 1.400071908e-38
-0.02953390681 -0.02534149843 0.04799998999 1.372413219e-38
-0.02915299784 -0.02534149843 0.04799998999 1.372413219e-38
-0.02885476868 -0.02541432006 0.04900000691 1.390852065e-38
-0.02847276512 -0.02541432006 0.04900000691 1.390852065e-38
-0.0281712498 -0.02548713953 0.04999999404 1.390852065e-38
-0.02778815169 -0.02548713953 0.04999999404 1.390852065e-38
-0.02740505358 -0.02548713953 0.04999999404 1.372412939e-38
-0.02709916236 -0.02555996116 0.05100001097 1.372412939e-38
-0.0267910797 -0.02563278062 0.05199999809 1.390852065e-38
-0.02640579245 -0.02563278062 0.05199999809 1.418510753e-38
-0.0260205052 -0.02563278062 0.05199999809 1.353973813e-38
-0.02563521795 -0.02563278062 0.05199999809 1.270997746e-38
-0.0252499307 -0.02563278062 0.05199999809 1.547549323e-38
-0.02486464345 -0.02563278062 0.05199999809 1.621305826e-38
-0.0244793562 -0.02563278062 0.05199999809 1.53843766e-38
-0.02409406895 -0.02563278062 0.05199999809 1.529218097e-38
-0.0237087817 -0.02563278062 0.05199999809 1.547657223e-38
-0.02332349445 -0.02563278062 0.05199999809 1.529218097e-38
-0.0229382072 -0.02563278062 0.05199999809 1.538509546e-38
-0.02255291995 -0.02563278062 0.05199999809 1.575387798e-38
-0.0221676327 -0.02563278062 0.05199999809 1.575387798e-38
-0.02172046458 -0.02555996116 0.05100001097 1.566168235e-38
-0.02133627188 -0.02555996116 0.05100001097 1.510850857e-38
-0.02095207918 -0.02555996116 0.05100001097 1.538509546e-38
-0.02050928753 -0.02548713953 0.04999999404 1.556948952e-38
-0.02012618941 -0.02548713953 0.04999999404 1.566168515e-38
-0.0197430913 -0.02548713953 0.04999999404 1.575388078e-38
-0.01930467963 -0.02541432006 0.04900000691 1.575388078e-38
-0.01892267607 -0.02541432006 0.04900000691 1.556948952e-38
-0.01854067251 -0.02541432006 0.04900000691 1.566168515e-38
-0.01815866895 -0.02541432006 0.04900000691 1.501703601e-38
-0.01777666538 -0.02541432006 0.04900000691 1.492484038e-38
-0.01734481954 -0.02534149843 0.04799998999 1.538581853e-38
-0.01691516432 -0.02526867897 0.04700000286 1.547801416e-38
-0.0165353499 -0.02526867897 0.04700000286 1.538581853e-38
-0.01610897694 -0.02519585734 0.04599998593 1.547801416e-38
-0.01568479452 -0.02512303787 0.04499999881 1.547801416e-38
-0.01530716923 -0.02512303787 0.04499999881 1.538581853e-38
-0.01492954394 -0.02512303787 0.04499999881 1.520142727e-38
-0.0136766974 -0.02490457732 0.04200000763 1.510923164e-38
-0.01326345936 -0.02483175568 0.0409999907 1.520142727e-38
-0.01289021235 -0.02483175568 0.0409999907 1.547801416e-38
-0.01248025916 -0.02475893622 0.04000000358 1.547801416e-38
-0.0121081067 -0.02475893622 0.04000000358 1.547801416e-38
-0.01173595423 -0.02475893622 0.04000000358 1.492484038e-38
-0.01136380177 -0.02475893622 0.04000000358 1.520142727e-38
-0.01095932038 -0.02468611459 0.03899998665 1.520250627e-38
-0.0105882625 -0.02468611459 0.03899998665 1.520250627e-38
-0.01021720462 -0.02468611459 0.03899998665 1.566348722e-38
-0.009846146742 -0.02468611459 0.03899998665 1.474153093e-38
-0.009475088863 -0.02468611459 0.03899998665 1.437274841e-38
-0.00907717578 -0.02461329513 0.03799999952 1.437274841e-38
-0.008707212453 -0.02461329513 0.03799999952 1.409508252e-38
-0.008337249125 -0.02461329513 0.03799999952 1.455606067e-38
-0.00794371425 -0.02454047566 0.0370000124 1.46493353e-38
-0.007574845475 -0.02454047566 0.0370000124 1.437274841e-38
-0.0072059767 -0.02454047566 0.0370000124 1.501811781e-38
-0.006816819428 -0.02446765403 0.03599999547 1.492592218e-38
-0.006449045238 -0.02446765403 0.03599999547 1.474189386e-38
-0.006081271047 -0.02446765403 0.03599999547 1.464969823e-38
-0.00569649262 -0.02439483457 0.03500000834 1.45575026e-38
-0.005329812982 -0.02439483457 0.03500000834 1.446530697e-38
-0.004963133343 -0.02439483457 0.03500000834 1.45575026e-38
-0.004596453704 -0.02439483457 0.03500000834 1.464969823e-38
-0.004217147661 -0.02432201294 0.03399999142 1.474189386e-38
-0.003851562607 -0.02432201294 0.03399999142 1.529506764e-38
-0.003485977553 -0.02432201294 0.03399999142 1.557165453e-38
-0.003111050127 -0.02424919348 0.03300000429 1.492628512e-38
-0.002746559625 -0.02424919348 0.03300000429 1.483444542e-38
-0.002382069123 -0.02424919348 0.03300000429 1.492664105e-38
-0.002011519723 -0.02417637184 0.03199998736 1.455785853e-38
-0.001648123806 -0.02417637184 0.03199998736 1.455785853e-38
-0.001284727889 -0.02417637184 0.03199998736 1.44656629e-38
-0.0009185569104 -0.02410355238 0.03100000024 1.455785853e-38
-0.000556255545 -0.02410355238 0.03100000024 1.455785853e-38
-0.0001939541795 -0.02410355238 0.03100000024 1.400468475e-38
0.0001678385908 -0.02403073292 0.03000001311 1.363590223e-38
0.0005290454043 -0.02403073292 0.03000001311 1.44656629e-38
0.0008902522178 -0.02403073292 0.03000001311 1.428127164e-38
0.001251459031 -0.02403073292 0.03000001311 1.44656629e-38
0.001607778896 -0.02395791129 0.02899999619 1.428127164e-38
0.001967891125 -0.02395791129 0.02899999619 1.44656629e-38
0.002328003354 -0.02395791129 0.02899999619 1.44656629e-38
0.002688115583 -0.02395791129 0.02899999619 1.428127164e-38
0.003048227812 -0.02395791129 0.02899999619 1.409688038e-38
0.003397980478 -0.02388509182 0.02800000906 1.418907601e-38
0.003756998155 -0.02388509182 0.02800000906 1.418907601e-38
0.004116015832 -0.02388509182 0.02800000906 1.418907601e-38
0.004475033509 -0.02388509182 0.02800000906 1.409688038e-38
0.004819312976 -0.02381227019 0.02699999213 1.428127164e-38
0.005177236068 -0.02381227019 0.02699999213 1.428091571e-38
0.00553515916 -0.02381227019 0.02699999213 1.391213319e-38
0.005875060826 -0.02373945073 0.02600000501 1.381993756e-38
0.006231889367 -0.02373945073 0.02600000501 1.446530697e-38
0.006588717907 -0.02373945073 0.02600000501 1.428091571e-38
0.006945546447 -0.02373945073 0.02600000501 1.483408949e-38
0.007279974686 -0.0236666291 0.02499998808 1.345115504e-38
0.007635708642 -0.0236666291 0.02499998808 1.36355463e-38
0.007991442597 -0.0236666291 0.02499998808 1.446530697e-38
0.008347176553 -0.0236666291 0.02499998808 1.400432882e-38
0.008702910509 -0.0236666291 0.02499998808 1.381993756e-38
0.00903077207 -0.02359380963 0.02400000095 1.381993756e-38
0.009385411474 -0.02359380963 0.02400000095 1.354335067e-38
0.009740050878 -0.02359380963 0.02400000095 1.36355463e-38
0.01009469028 -0.02359380963 0.02400000095 1.382029349e-38
0.01044932969 -0.02359380963 0.02400000095 1.391248912e-38
0.01080396909 -0.02359380963 0.02400000095 1.391248912e-38
0.01112416879 -0.02352099017 0.02300001383 1.382029349e-38
0.01147771364 -0.02352099017 0.02300001383 1.391248912e-38
0.01183125849 -0.02352099017 0.02300001383 1.391248912e-38
0.01214707886 -0.02344816854 0.0219999969 1.391248912e-38
0.01249952912 -0.02344816854 0.0219999969 1.391248912e-38
0.01285197939 -0.02344816854 0.0219999969 1.391248912e-38
0.01316342264 -0.02337534908 0.02100000978 1.400468475e-38
0.01351477836 -0.02337534908 0.02100000978 1.400468475e-38
0.01386613407 -0.02337534908 0.02100000978 1.409688038e-38
0.01421748979 -0.02337534908 0.02100000978 1.391356812e-38
0.01452345892 -0.02330252744 0.01999999285 1.400576375e-38
0.01487372005 -0.02330252744 0.01999999285 1.391321219e-38
0.01522398119 -0.02330252744 0.01999999285 1.409760345e-38
0.01552557343 -0.02322970798 0.01900000572 1.400540782e-38
0.01587474001 -0.02322970798 0.01900000572 1.400540782e-38
0.01622390659 -0.02322970798 0.01900000572 1.391321219e-38
0.01652111908 -0.02315688635 0.01799998879 1.391321219e-38
0.01686919108 -0.02315688635 0.01799998879 1.409760625e-38
0.01721726307 -0.02315688635 0.01799998879 1.409760625e-38
0.01751009887 -0.02308406689 0.01700000167 1.400541063e-38
0.01785707632 -0.02308406689 0.01700000167 1.45585844e-38
0.01820405376 -0.02308406689 0.01700000167 1.474297566e-38
0.0185510312 -0.02308406689 0.01700000167 1.45585844e-38
0.01883839424 -0.02301124742 0.01600001454 1.45585844e-38
0.01918427713 -0.02301124742 0.01600001454 1.437419314e-38
0.01953016002 -0.02301124742 0.01600001454 1.409652726e-38
0.01981314298 -0.02293842579 0.01499999762 1.45575054e-38
0.02015793129 -0.02293842579 0.01499999762 1.372882374e-38
0.02050271959 -0.02293842579 0.01499999762 1.45585844e-38
0.02078132618 -0.02286560633 0.01400001049 1.455930327e-38
0.02112501994 -0.02286560633 0.01400001049 1.455930327e-38
0.02146871369 -0.02286560633 0.01400001049 1.446710764e-38
0.02181240745 -0.02286560633 0.01400001049 1.391393386e-38
0.0221561012 -0.02286560633 0.01400001049 1.354515134e-38
0.02249979495 -0.02286560633 0.01400001049 1.382173823e-38
0.02277073751 -0.0227927847 0.01299999356 1.391393386e-38
0.02311333668 -0.0227927847 0.01299999356 1.455930327e-38
0.02345593585 -0.0227927847 0.01299999356 1.483589016e-38
-0.03058848363 -0.0248889388 0.04700000286 1.372521119e-38
-0.03020866921 -0.0248889388 0.04700000286 1.390852345e-38
-0.02991481579 -0.02496066392 0.04799998999 1.400071908e-38
-0.02953390681 -0.02496066392 0.04799998999 1.372413219e-38
-0.02923677224 -0.02503239119 0.04900000691 1.372413219e-38
-0.02885476868 -0.02503239119 0.04900000691 1.390852065e-38
-0.02847276512 -0.02503239119 0.04900000691 1.390852065e-38
-0.0281712498 -0.02510411631 0.04999999404 1.390852065e-38
-0.02778815169 -0.02510411631 0.04999999404 1.372412939e-38
-0.02740505358 -0.02510411631 0.04999999404 1.409219304e-38
-0.02709916236 -0.02517584357 0.05100001097 1.418438867e-38
-0.0267910797 -0.0252475687 0.05199999809 1.418438867e-38
-0.02640579245 -0.0252475687 0.05199999809 1.42765843e-38
-0.0260205052 -0.0252475687 0.05199999809 1.390852065e-38
-0.02563521795 -0.0252475687 0.05199999809 1.270997746e-38
-0.0252499307 -0.0252475687 0.05199999809 1.547549323e-38
-0.02486464345 -0.0252475687 0.05199999809 1.621305826e-38
-0.0244793562 -0.0252475687 0.05199999809 1.529218097e-38
