# .PCD v0.7 - Point Cloud Data file format
VERSION 0.7
FIELDS x y z rgb
SIZE 4 4 4 4
TYPE F F F F
COUNT 1 1 1 1
WIDTH 803
HEIGHT 1
VIEWPOINT 0 0 0 1 0 0 0
POINTS 803
DATA ascii
-0.003141554692 0.01859725604 0.0009999990463 2.785275478e-39
-0.00281209031 0.01859725604 0.0009999990463 2.877471108e-39
-0.002482625927 0.01859725604 0.0009999990463 2.785275478e-39
-0.002153161545 0.01859725604 0.0009999990463 2.785275478e-39
-0.001823697162 0.01859725604 0.0009999990463 2.785275478e-39
-0.00149423278 0.01859725604 0.0009999990463 2.877471108e-39
-0.001164768397 0.01859725604 0.0009999990463 2.785275478e-39
-0.000835304015 0.01859725604 0.0009999990463 2.785275478e-39
-0.0005058396326 0.01859725604 0.0009999990463 2.784196479e-39
-0.0001769612069 0.01865904015 0.001999986172 2.784196479e-39
0.0001535977275 0.01865904015 0.001999986172 3.060783368e-39
0.0004841566619 0.01865904015 0.001999986172 3.152978998e-39
0.0008147155963 0.01865904015 0.001999986172 3.060783368e-39
0.001145274531 0.01865904015 0.001999986172 3.152978998e-39
0.001470946662 0.01859725604 0.0009999990463 3.060783368e-39
0.001800411044 0.01859725604 0.0009999990463 2.784196479e-39
0.002129875427 0.01859725604 0.0009999990463 2.784196479e-39
0.002459339809 0.01859725604 0.0009999990463 3.429565888e-39
0.002788804192 0.01859725604 0.0009999990463 2.692003651e-39
0.003107909011 0.01853547193 1.192092897e-08 2.784199281e-39
0.003436278842 0.01853547193 1.192092897e-08 2.968590541e-39
0.003764648672 0.01853547193 1.192092897e-08 2.784199281e-39
0.004079374877 0.01847368598 -0.001000005007 2.600887021e-39
0.004406650123 0.01847368598 -0.001000005007 2.600887021e-39
0.004733925369 0.01847368598 -0.001000005007 3.061865171e-39
0.00504427374 0.01841190187 -0.001999992132 2.877473911e-39
0.005370454434 0.01841190187 -0.001999992132 2.784199281e-39
0.005696635128 0.01841190187 -0.001999992132 2.692003651e-39
0.006022815822 0.01841190187 -0.001999992132 2.968590541e-39
0.006348996516 0.01841190187 -0.001999992132 3.060786171e-39
0.00667517721 0.01841190187 -0.001999992132 3.060786171e-39
0.006977863017 0.01835011592 -0.00300000906 3.152981801e-39
0.007302949126 0.01835011592 -0.00300000906 3.244458564e-39
0.007628035236 0.01835011592 -0.00300000906 3.244458564e-39
0.007953121345 0.01835011592 -0.00300000906 3.336654194e-39
0.008278207454 0.01835011592 -0.00300000906 3.060067305e-39
0.008603293564 0.01835011592 -0.00300000906 2.875676045e-39
0.008928379673 0.01835011592 -0.00300000906 2.875676045e-39
0.009253465782 0.01835011592 -0.00300000906 3.060067305e-39
0.009578551892 0.01835011592 -0.00300000906 3.152262934e-39
0.009870292847 0.01828833181 -0.003999996185 3.244458564e-39
0.0101942844 0.01828833181 -0.003999996185 3.336654194e-39
0.01051827596 0.01828833181 -0.003999996185 3.521045454e-39
0.01084226752 0.01828833181 -0.003999996185 3.521045454e-39
0.01116625908 0.01828833181 -0.003999996185 4.163537997e-39
0.01149025063 0.01828833181 -0.003999996185 4.163537997e-39
0.01181424219 0.01828833181 -0.003999996185 4.710956644e-39
0.01213823375 0.01828833181 -0.003999996185 8.122194949e-39
0.01338847114 0.01964759877 0.01799998879 1.281877427e-38
0.01373654313 0.01964759877 0.01799998879 1.56768388e-38
0.01408461513 0.01964759877 0.01799998879 1.55828425e-38
0.0144780737 0.01970938472 0.01900000572 1.493747309e-38
0.01482724028 0.01970938472 0.01900000572 1.46598072e-38
0.01517640686 0.01970938472 0.01900000572 1.419882905e-38
0.01552557343 0.01970938472 0.01900000572 1.465980299e-38
0.01587474001 0.01970938472 0.01900000572 1.465980299e-38
0.01622390659 0.01970938472 0.01900000572 1.475091962e-38
0.01657307317 0.01970938472 0.01900000572 1.447433274e-38
0.01692223975 0.01970938472 0.01900000572 1.447433274e-38
0.01727140633 0.01970938472 0.01900000572 1.447433274e-38
0.01756533507 0.01964759877 0.01799998879 1.45658095e-38
0.01791340706 0.01964759877 0.01799998879 1.465800513e-38
0.01826147906 0.01964759877 0.01799998879 1.438213711e-38
0.01860955105 0.01964759877 0.01799998879 1.447433274e-38
0.01895762304 0.01964759877 0.01799998879 1.456652837e-38
0.01930569504 0.01964759877 0.01799998879 1.493531088e-38
0.01965376703 0.01964759877 0.01799998879 1.382896333e-38
0.02000183903 0.01964759877 0.01799998879 1.419774585e-38
0.02034991102 0.01964759877 0.01799998879 1.438213711e-38
0.02069798302 0.01964759877 0.01799998879 1.447433274e-38
0.02104605501 0.01964759877 0.01799998879 1.456760737e-38
0.021394127 0.01964759877 0.01799998879 1.456760737e-38
0.021742199 0.01964759877 0.01799998879 1.456760737e-38
0.02209027099 0.01964759877 0.01799998879 1.456760737e-38
0.02243834299 0.01964759877 0.01799998879 1.475199862e-38
0.02278641498 0.01964759877 0.01799998879 1.465980299e-38
0.02313448697 0.01964759877 0.01799998879 1.456760737e-38
0.02348255897 0.01964759877 0.01799998879 1.475199862e-38
0.02383063096 0.01964759877 0.01799998879 1.475091962e-38
-0.02794394606 0.01993272427 0.01700000167 1.502822958e-38
-0.02759696862 0.01993272427 0.01700000167 1.465944707e-38
-0.02724999117 0.01993272427 0.01700000167 1.484383832e-38
-0.02690301373 0.01993272427 0.01700000167 1.484383832e-38
-0.02655603629 0.01993272427 0.01700000167 1.502822958e-38
-0.02620905885 0.01993272427 0.01700000167 1.530481647e-38
-0.0257804986 0.01986984582 0.01600001454 1.521262084e-38
-0.02543461571 0.01986984582 0.01600001454 1.521262084e-38
-0.02508873282 0.01986984582 0.01600001454 1.53970121e-38
-0.02474284993 0.01986984582 0.01600001454 1.53970121e-38
-0.02439696704 0.01986984582 0.01600001454 1.53970121e-38
-0.02405108415 0.01986984582 0.01600001454 1.558140336e-38
-0.02370520126 0.01986984582 0.01600001454 1.558140336e-38
-0.02335931837 0.01986984582 0.01600001454 1.484383832e-38
-0.02301343548 0.01986984582 0.01600001454 1.456725144e-38
-0.02266755259 0.01986984582 0.01600001454 1.475164269e-38
-0.0223216697 0.01986984582 0.01600001454 1.493603395e-38
-0.02197578681 0.01986984582 0.01600001454 1.484419846e-38
-0.02162990392 0.01986984582 0.01600001454 1.493639409e-38
-0.02128402103 0.01986984582 0.01600001454 1.429102468e-38
-0.02093813814 0.01986984582 0.01600001454 1.419882905e-38
-0.02059225525 0.01986984582 0.01600001454 1.475200563e-38
-0.02024637236 0.01986984582 0.01600001454 1.521298378e-38
-0.01990048947 0.01986984582 0.01600001454 1.512078815e-38
-0.01955460658 0.01986984582 0.01600001454 1.475200563e-38
-0.01926951 0.01993272427 0.01700000167 1.456725424e-38
-0.01892253256 0.01993272427 0.01700000167 1.484384113e-38
-0.01851695791 0.01986984582 0.01600001454 1.484384113e-38
-0.01817107502 0.01986984582 0.01600001454 1.521262365e-38
-0.01782519213 0.01986984582 0.01600001454 1.521262365e-38
-0.01747930924 0.01986984582 0.01600001454 1.502823239e-38
-0.01713342635 0.01986984582 0.01600001454 1.493603395e-38
-0.01678754346 0.01986984582 0.01600001454 1.484383832e-38
-0.01644166057 0.01986984582 0.01600001454 1.465980299e-38
-0.01609577768 0.01986984582 0.01600001454 1.475199862e-38
-0.01574989479 0.01986984582 0.01600001454 1.465980299e-38
-0.0154040119 0.01986984582 0.01600001454 1.465980299e-38
-0.01174652391 0.01898953446 0.001999986172 5.360642052e-39
-0.01141596498 0.01898953446 0.001999986172 4.438685753e-39
-0.01108540604 0.01898953446 0.001999986172 3.703638848e-39
-0.01075484711 0.01898953446 0.001999986172 3.703638848e-39
-0.01042428817 0.01898953446 0.001999986172 3.703636045e-39
-0.01009372924 0.01898953446 0.001999986172 3.703636045e-39
-0.009763170305 0.01898953446 0.001999986172 3.519963651e-39
-0.00943261137 0.01898953446 0.001999986172 3.519963651e-39
-0.009102052436 0.01898953446 0.001999986172 3.244455762e-39
-0.008771493501 0.01898953446 0.001999986172 3.152260132e-39
-0.008440934567 0.01898953446 0.001999986172 3.060064502e-39
-0.008110375633 0.01898953446 0.001999986172 3.060064502e-39
-0.007779816698 0.01898953446 0.001999986172 3.152978998e-39
-0.007449257764 0.01898953446 0.001999986172 2.968587738e-39
-0.007118698829 0.01898953446 0.001999986172 3.152978998e-39
-0.006765662899 0.01892665601 0.0009999990463 3.152978998e-39
-0.006436198516 0.01892665601 0.0009999990463 3.152978998e-39
-0.006106734134 0.01892665601 0.0009999990463 2.968587738e-39
-0.005777269752 0.01892665601 0.0009999990463 2.692000849e-39
-0.005447805369 0.01892665601 0.0009999990463 2.692000849e-39
-0.005118340987 0.01892665601 0.0009999990463 3.060783368e-39
-0.004788876604 0.01892665601 0.0009999990463 3.152978998e-39
-0.004459412222 0.01892665601 0.0009999990463 3.060783368e-39
-0.004129947839 0.01892665601 0.0009999990463 2.784196479e-39
-0.003800483457 0.01892665601 0.0009999990463 2.508688589e-39
-0.003471019074 0.01892665601 0.0009999990463 2.785275478e-39
-0.003141554692 0.01892665601 0.0009999990463 2.877471108e-39
-0.00281209031 0.01892665601 0.0009999990463 2.877471108e-39
-0.002482625927 0.01892665601 0.0009999990463 2.877471108e-39
-0.002153161545 0.01892665601 0.0009999990463 2.600884219e-39
-0.001823697162 0.01892665601 0.0009999990463 2.785275478e-39
-0.00149423278 0.01892665601 0.0009999990463 2.785275478e-39
-0.001164768397 0.01892665601 0.0009999990463 2.785275478e-39
-0.000835304015 0.01892665601 0.0009999990463 2.877471108e-39
-0.0005058396326 0.01892665601 0.0009999990463 2.784196479e-39
-0.0001769612069 0.01898953446 0.001999986172 2.784196479e-39
0.0001535977275 0.01898953446 0.001999986172 3.060064502e-39
0.0004841566619 0.01898953446 0.001999986172 2.691281983e-39
0.0008147155963 0.01898953446 0.001999986172 2.783477612e-39
0.001145274531 0.01898953446 0.001999986172 3.244455762e-39
0.001470946662 0.01892665601 0.0009999990463 2.875673242e-39
0.001800411044 0.01892665601 0.0009999990463 3.060064502e-39
0.002129875427 0.01892665601 0.0009999990463 3.152260132e-39
0.002459339809 0.01892665601 0.0009999990463 3.244455762e-39
0.002788804192 0.01892665601 0.0009999990463 2.599089155e-39
0.003107909011 0.01886377756 1.192092897e-08 2.691284785e-39
0.003436278842 0.01886377756 1.192092897e-08 2.875676045e-39
0.003764648672 0.01886377756 1.192092897e-08 2.875676045e-39
0.004079374877 0.01880089724 -0.001000005007 2.784199281e-39
0.004406650123 0.01880089724 -0.001000005007 2.692003651e-39
0.004733925369 0.01880089724 -0.001000005007 2.692003651e-39
0.00504427374 0.0187380188 -0.001999992132 2.784199281e-39
0.005370454434 0.0187380188 -0.001999992132 2.968590541e-39
0.005696635128 0.0187380188 -0.001999992132 3.060786171e-39
0.006022815822 0.0187380188 -0.001999992132 3.060786171e-39
0.006348996516 0.0187380188 -0.001999992132 3.152981801e-39
0.00667517721 0.0187380188 -0.001999992132 3.060786171e-39
0.006977863017 0.01867513848 -0.00300000906 2.968590541e-39
0.007302949126 0.01867513848 -0.00300000906 3.152262934e-39
0.007628035236 0.01867513848 -0.00300000906 3.152262934e-39
0.007953121345 0.01867513848 -0.00300000906 3.060067305e-39
0.008278207454 0.01867513848 -0.00300000906 3.060067305e-39
0.008603293564 0.01867513848 -0.00300000906 3.060067305e-39
0.008928379673 0.01867513848 -0.00300000906 3.152262934e-39
0.009253465782 0.01867513848 -0.00300000906 3.060067305e-39
0.009578551892 0.01867513848 -0.00300000906 3.152262934e-39
0.009870292847 0.01861226003 -0.003999996185 3.152262934e-39
0.0101942844 0.01861226003 -0.003999996185 3.336654194e-39
0.01051827596 0.01861226003 -0.003999996185 3.428849824e-39
0.01084226752 0.01861226003 -0.003999996185 3.521045454e-39
0.01116625908 0.01861226003 -0.003999996185 3.979146737e-39
0.01149025063 0.01861226003 -0.003999996185 4.163537997e-39
0.01181424219 0.01861226003 -0.003999996185 4.895347903e-39
0.01213823375 0.01861226003 -0.003999996185 8.675368728e-39
0.01338847114 0.01999560272 0.01799998879 1.254326638e-38
0.01373654313 0.01999560272 0.01799998879 1.521693965e-38
0.01408461513 0.01999560272 0.01799998879 1.521405998e-38
0.01443268712 0.01999560272 0.01799998879 1.502966872e-38
0.01478075911 0.01999560272 0.01799998879 1.512078535e-38
0.01512883111 0.01999560272 0.01799998879 1.429102468e-38
0.0154769031 0.01999560272 0.01799998879 1.429066455e-38
0.0158249751 0.01999560272 0.01799998879 1.401407766e-38
0.01617304709 0.01999560272 0.01799998879 1.428958555e-38
0.01652111908 0.01999560272 0.01799998879 1.447397681e-38
0.01686919108 0.01999560272 0.01799998879 1.438213711e-38
0.01721726307 0.01999560272 0.01799998879 1.428994148e-38
0.01756533507 0.01999560272 0.01799998879 1.438213711e-38
0.01791340706 0.01999560272 0.01799998879 1.428994148e-38
0.01826147906 0.01999560272 0.01799998879 1.410555022e-38
0.01860955105 0.01999560272 0.01799998879 1.447433274e-38
0.01895762304 0.01999560272 0.01799998879 1.456652837e-38
0.01930569504 0.01999560272 0.01799998879 1.567287592e-38
0.01965376703 0.01999560272 0.01799998879 1.493531088e-38
0.02000183903 0.01999560272 0.01799998879 1.447433274e-38
0.02034991102 0.01999560272 0.01799998879 1.428994148e-38
0.02069798302 0.01999560272 0.01799998879 1.382896333e-38
0.02104605501 0.01999560272 0.01799998879 1.401335459e-38
0.021394127 0.01999560272 0.01799998879 1.475091962e-38
0.021742199 0.01999560272 0.01799998879 1.502715058e-38
0.02209027099 0.01999560272 0.01799998879 1.484275933e-38
0.02243834299 0.01999560272 0.01799998879 1.493495495e-38
0.02278641498 0.01999560272 0.01799998879 1.493495495e-38
0.02313448697 0.01999560272 0.01799998879 1.484275933e-38
0.02340871539 0.01993272427 0.01700000167 1.493495495e-38
0.02375569283 0.01993272427 0.01700000167 1.502750651e-38
-0.02785579595 0.02021566109 0.01600001454 1.530481647e-38
-0.02750991305 0.02021566109 0.01600001454 1.429066455e-38
-0.02716403016 0.02021566109 0.01600001454 1.438286018e-38
-0.02681814727 0.02021566109 0.01600001454 1.484383832e-38
-0.02647226438 0.02021566109 0.01600001454 1.502822958e-38
-0.02612638149 0.02021566109 0.01600001454 1.521262084e-38
-0.0257804986 0.02021566109 0.01600001454 1.530481647e-38
-0.02543461571 0.02021566109 0.01600001454 1.530481647e-38
-0.02508873282 0.02021566109 0.01600001454 1.53970121e-38
-0.02474284993 0.02021566109 0.01600001454 1.548920773e-38
-0.02439696704 0.02021566109 0.01600001454 1.521262084e-38
-0.02405108415 0.02021566109 0.01600001454 1.502822958e-38
-0.02370520126 0.02021566109 0.01600001454 1.521262084e-38
-0.02335931837 0.02021566109 0.01600001454 1.521262084e-38
-0.02301343548 0.02021566109 0.01600001454 1.465944707e-38
-0.02266755259 0.02021566109 0.01600001454 1.465944707e-38
-0.0223216697 0.02021566109 0.01600001454 1.484383832e-38
-0.02197578681 0.02021566109 0.01600001454 1.46598072e-38
-0.02162990392 0.02021566109 0.01600001454 1.475200283e-38
-0.02128402103 0.02021566109 0.01600001454 1.475200283e-38
-0.02093813814 0.02021566109 0.01600001454 1.475200283e-38
-0.02059225525 0.02021566109 0.01600001454 1.456761157e-38
-0.02024637236 0.02021566109 0.01600001454 1.475200283e-38
-0.01990048947 0.02021566109 0.01600001454 1.521298098e-38
-0.01955460658 0.02021566109 0.01600001454 1.493639409e-38
-0.01920872369 0.02021566109 0.01600001454 1.401408046e-38
-0.0188628408 0.02021566109 0.01600001454 1.438286298e-38
-0.01851695791 0.02021566109 0.01600001454 1.521262365e-38
-0.01817107502 0.02021566109 0.01600001454 1.521262365e-38
-0.01782519213 0.02021566109 0.01600001454 1.530481928e-38
-0.01747930924 0.02021566109 0.01600001454 1.521262365e-38
-0.01713342635 0.02021566109 0.01600001454 1.502823239e-38
-0.01678754346 0.02021566109 0.01600001454 1.502823239e-38
-0.01644166057 0.02021566109 0.01600001454 1.502822958e-38
-0.01604484081 0.0201516864 0.01499999762 1.484383832e-38
-0.01570005251 0.0201516864 0.01499999762 1.502822958e-38
-0.0153552642 0.0201516864 0.01499999762 1.530481647e-38
-0.01253089737 0.01951195093 0.005000007153 6.736027705e-39
-0.01215706369 0.01944797624 0.003999990225 6.090658296e-39
-0.01182431562 0.01944797624 0.003999990225 4.990780533e-39
-0.01145376683 0.01938400345 0.003000003099 4.621998013e-39
-0.01112211331 0.01938400345 0.003000003099 3.886951108e-39
-0.01079045979 0.01938400345 0.003000003099 3.886951108e-39
-0.01045880627 0.01938400345 0.003000003099 3.427051958e-39
-0.01012715275 0.01938400345 0.003000003099 3.427051958e-39
-0.009795499232 0.01938400345 0.003000003099 3.427770824e-39
-0.009463845713 0.01938400345 0.003000003099 3.427770824e-39
-0.009132192194 0.01938400345 0.003000003099 3.244458564e-39
-0.008800538675 0.01938400345 0.003000003099 2.875676045e-39
-0.008468885156 0.01938400345 0.003000003099 3.060067305e-39
-0.008137231637 0.01938400345 0.003000003099 3.152262934e-39
-0.007779816698 0.01932002876 0.001999986172 3.244458564e-39
-0.007449257764 0.01932002876 0.001999986172 2.875676045e-39
-0.007118698829 0.01932002876 0.001999986172 3.152262934e-39
-0.006788139895 0.01932002876 0.001999986172 3.244458564e-39
-0.006457580961 0.01932002876 0.001999986172 3.244455762e-39
-0.006127022026 0.01932002876 0.001999986172 2.599086353e-39
-0.005777269752 0.01925605598 0.0009999990463 2.599086353e-39
-0.005447805369 0.01925605598 0.0009999990463 2.783477612e-39
-0.005118340987 0.01925605598 0.0009999990463 2.692000849e-39
-0.004788876604 0.01925605598 0.0009999990463 3.152978998e-39
-0.004459412222 0.01925605598 0.0009999990463 2.969666738e-39
-0.004129947839 0.01925605598 0.0009999990463 2.785275478e-39
-0.003800483457 0.01925605598 0.0009999990463 2.785275478e-39
-0.003471019074 0.01925605598 0.0009999990463 2.785275478e-39
-0.003141554692 0.01925605598 0.0009999990463 2.785275478e-39
-0.00281209031 0.01925605598 0.0009999990463 2.785275478e-39
-0.002482625927 0.01925605598 0.0009999990463 2.785275478e-39
-0.002153161545 0.01925605598 0.0009999990463 2.785275478e-39
-0.001823697162 0.01925605598 0.0009999990463 2.785275478e-39
-0.001499196944 0.01932002876 0.001999986172 2.877471108e-39
-0.00116863801 0.01932002876 0.001999986172 2.692000849e-39
-0.0008380790757 0.01932002876 0.001999986172 2.692000849e-39
-0.0005075201413 0.01932002876 0.001999986172 2.692000849e-39
-0.0001769612069 0.01932002876 0.001999986172 2.968587738e-39
0.0001535977275 0.01932002876 0.001999986172 3.060064502e-39
0.0004841566619 0.01932002876 0.001999986172 2.783477612e-39
0.0008147155963 0.01932002876 0.001999986172 2.783477612e-39
0.001145274531 0.01932002876 0.001999986172 2.875673242e-39
0.001475833465 0.01932002876 0.001999986172 2.875673242e-39
0.0018063924 0.01932002876 0.001999986172 3.060064502e-39
0.002129875427 0.01925605598 0.0009999990463 3.060067305e-39
0.002459339809 0.01925605598 0.0009999990463 3.060067305e-39
0.002788804192 0.01925605598 0.0009999990463 2.414697896e-39
0.003118268574 0.01925605598 0.0009999990463 2.783480415e-39
0.003447732957 0.01925605598 0.0009999990463 2.875676045e-39
0.003777197339 0.01925605598 0.0009999990463 3.060067305e-39
0.004093018503 0.01919208319 1.192092897e-08 2.784199281e-39
0.004421388333 0.01919208319 1.192092897e-08 2.599808021e-39
0.004749758164 0.01919208319 1.192092897e-08 2.599808021e-39
0.005061200615 0.0191281085 -0.001000005007 2.692003651e-39
0.005388475861 0.0191281085 -0.001000005007 2.692003651e-39
0.005715751107 0.0191281085 -0.001000005007 2.968590541e-39
0.006043026353 0.0191281085 -0.001000005007 3.060786171e-39
0.006391607316 0.01919208319 1.192092897e-08 3.060786171e-39
0.006719977146 0.01919208319 1.192092897e-08 3.060786171e-39
0.007001357904 0.01906413572 -0.001999992132 3.060786171e-39
0.007327538598 0.01906413572 -0.001999992132 3.152262934e-39
0.007653719292 0.01906413572 -0.001999992132 3.152262934e-39
0.007979899985 0.01906413572 -0.001999992132 3.060067305e-39
0.008306080679 0.01906413572 -0.001999992132 3.336654194e-39
0.008632261373 0.01906413572 -0.001999992132 3.612162084e-39
0.008958442067 0.01906413572 -0.001999992132 3.335575194e-39
0.009253465782 0.01900016103 -0.00300000906 3.335575194e-39
0.009578551892 0.01900016103 -0.00300000906 3.335575194e-39
0.009903638001 0.01900016103 -0.00300000906 3.335575194e-39
0.01022872411 0.01900016103 -0.00300000906 3.427770824e-39
0.01055381022 0.01900016103 -0.00300000906 3.427770824e-39
0.01087889633 0.01900016103 -0.00300000906 3.612162084e-39
0.01120398244 0.01900016103 -0.00300000906 3.979146737e-39
0.01152906855 0.01900016103 -0.00300000906 3.886951108e-39
0.01181424219 0.01893618824 -0.003999996185 5.8162224e-39
0.01213823375 0.01893618824 -0.003999996185 8.674286925e-39
0.01338847114 0.02034360666 0.01799998879 1.254326638e-38
0.01373654313 0.02034360666 0.01799998879 1.494035276e-38
0.01408461513 0.02034360666 0.01799998879 1.355454144e-38
0.01443268712 0.02034360666 0.01799998879 1.401551959e-38
0.01478075911 0.02034360666 0.01799998879 1.493639689e-38
0.01512883111 0.02034360666 0.01799998879 1.484420126e-38
0.0154769031 0.02034360666 0.01799998879 1.419846892e-38
0.0158249751 0.02034360666 0.01799998879 1.364529514e-38
0.01617304709 0.02034360666 0.01799998879 1.438178118e-38
0.01652111908 0.02034360666 0.01799998879 1.438178118e-38
0.01686919108 0.02034360666 0.01799998879 1.419774585e-38
0.01721726307 0.02034360666 0.01799998879 1.419774585e-38
0.01756533507 0.02034360666 0.01799998879 1.401335459e-38
0.01791340706 0.02034360666 0.01799998879 1.447433274e-38
0.01826147906 0.02034360666 0.01799998879 1.456652837e-38
0.01860955105 0.02034360666 0.01799998879 1.484311525e-38
0.01895762304 0.02034360666 0.01799998879 1.484311525e-38
0.01930569504 0.02034360666 0.01799998879 1.484311525e-38
0.01965376703 0.02034360666 0.01799998879 1.428994148e-38
0.02000183903 0.02034360666 0.01799998879 1.438213711e-38
0.02034991102 0.02034360666 0.01799998879 1.438213711e-38
0.02069798302 0.02034360666 0.01799998879 1.438213711e-38
0.02104605501 0.02034360666 0.01799998879 1.484311525e-38
0.021394127 0.02034360666 0.01799998879 1.456652837e-38
0.021742199 0.02034360666 0.01799998879 1.475091962e-38
0.02209027099 0.02034360666 0.01799998879 1.484311525e-38
0.02236778306 0.02027963388 0.01700000167 1.493531088e-38
0.02271476051 0.02027963388 0.01700000167 1.502750651e-38
0.02306173795 0.02027963388 0.01700000167 1.502750651e-38
0.02340871539 0.02027963388 0.01700000167 1.502750651e-38
0.02375569283 0.02027963388 0.01700000167 1.493531088e-38
-0.02785579595 0.02056147636 0.01600001454 1.502822958e-38
-0.02750991305 0.02056147636 0.01600001454 1.475164269e-38
-0.02716403016 0.02056147636 0.01600001454 1.493603395e-38
-0.02681814727 0.02056147636 0.01600001454 1.530481647e-38
-0.02647226438 0.02056147636 0.01600001454 1.502822958e-38
-0.02612638149 0.02056147636 0.01600001454 1.484383832e-38
-0.0257804986 0.02056147636 0.01600001454 1.548920773e-38
-0.02543461571 0.02056147636 0.01600001454 1.548920773e-38
-0.02508873282 0.02056147636 0.01600001454 1.548920773e-38
-0.02474284993 0.02056147636 0.01600001454 1.548920773e-38
-0.02439696704 0.02056147636 0.01600001454 1.53970121e-38
-0.02405108415 0.02056147636 0.01600001454 1.521262084e-38
-0.02370520126 0.02056147636 0.01600001454 1.530481647e-38
-0.02335931837 0.02056147636 0.01600001454 1.521262365e-38
-0.02301343548 0.02056147636 0.01600001454 1.502823239e-38
-0.02266755259 0.02056147636 0.01600001454 1.465944707e-38
-0.0223216697 0.02056147636 0.01600001454 1.502822958e-38
-0.02197578681 0.02056147636 0.01600001454 1.521262084e-38
-0.02162990392 0.02056147636 0.01600001454 1.484383832e-38
-0.02128402103 0.02056147636 0.01600001454 1.484383832e-38
-0.02093813814 0.02056147636 0.01600001454 1.502822958e-38
-0.02059225525 0.02056147636 0.01600001454 1.521262084e-38
-0.02024637236 0.02056147636 0.01600001454 1.521262084e-38
-0.01990048947 0.02056147636 0.01600001454 1.521262084e-38
-0.01955460658 0.02056147636 0.01600001454 1.521262084e-38
-0.01920872369 0.02056147636 0.01600001454 1.484383832e-38
-0.0188628408 0.02056147636 0.01600001454 1.456725144e-38
-0.01845835895 0.0204964073 0.01499999762 1.530481647e-38
-0.01811357064 0.0204964073 0.01499999762 1.530481647e-38
-0.01776878234 0.0204964073 0.01499999762 1.521262084e-38
-0.01742399403 0.0204964073 0.01499999762 1.521262084e-38
-0.01707920573 0.0204964073 0.01499999762 1.493603395e-38
-0.01673441742 0.0204964073 0.01499999762 1.502822958e-38
-0.01638962912 0.0204964073 0.01499999762 1.548920773e-38
-0.01604484081 0.0204964073 0.01499999762 1.493603395e-38
-0.01570005251 0.0204964073 0.01499999762 1.521262084e-38
-0.0153552642 0.0204964073 0.01499999762 1.521262084e-38
-0.01253089737 0.01984572832 0.005000007153 7.197361784e-39
-0.01215706369 0.01978065926 0.003999990225 6.551992375e-39
-0.01182431562 0.01978065926 0.003999990225 4.621998013e-39
-0.01149156755 0.01978065926 0.003999990225 4.621998013e-39
-0.01115881948 0.01978065926 0.003999990225 3.794755478e-39
-0.01082607141 0.01978065926 0.003999990225 3.702559848e-39
-0.01049332334 0.01978065926 0.003999990225 3.702203918e-39
-0.01016057527 0.01978065926 0.003999990225 3.610008288e-39
-0.009827827195 0.01978065926 0.003999990225 3.243023635e-39
-0.009495079125 0.01978065926 0.003999990225 3.427414894e-39
-0.009162331054 0.01978065926 0.003999990225 3.152262934e-39
-0.008800538675 0.01971559213 0.003000003099 2.875676045e-39
-0.008468885156 0.01971559213 0.003000003099 3.060067305e-39
-0.008137231637 0.01971559213 0.003000003099 3.152262934e-39
-0.007805578118 0.01971559213 0.003000003099 3.244458564e-39
-0.007473924599 0.01971559213 0.003000003099 3.060067305e-39
-0.00714227108 0.01971559213 0.003000003099 3.060067305e-39
-0.006788139895 0.01965052307 0.001999986172 3.152262934e-39
-0.006457580961 0.01965052307 0.001999986172 3.244455762e-39
-0.006127022026 0.01965052307 0.001999986172 3.244455762e-39
-0.005796463092 0.01965052307 0.001999986172 3.152260132e-39
-0.005465904157 0.01965052307 0.001999986172 3.060064502e-39
-0.005118340987 0.01958545595 0.0009999990463 3.152260132e-39
-0.004788876604 0.01958545595 0.0009999990463 3.244455762e-39
-0.004459412222 0.01958545595 0.0009999990463 2.784196479e-39
-0.004129947839 0.01958545595 0.0009999990463 2.784196479e-39
-0.003800483457 0.01958545595 0.0009999990463 2.784196479e-39
-0.003471019074 0.01958545595 0.0009999990463 2.784196479e-39
-0.003151991616 0.01965052307 0.001999986172 2.784196479e-39
-0.002821432682 0.01965052307 0.001999986172 2.968587738e-39
-0.002490873748 0.01965052307 0.001999986172 2.599805219e-39
-0.002160314813 0.01965052307 0.001999986172 2.692000849e-39
-0.001829755879 0.01965052307 0.001999986172 2.784196479e-39
-0.001499196944 0.01965052307 0.001999986172 3.152978998e-39
-0.00116863801 0.01965052307 0.001999986172 2.692000849e-39
-0.0008408542191 0.01971559213 0.003000003099 2.784196479e-39
-0.0005092007001 0.01971559213 0.003000003099 2.783477612e-39
-0.0001775471811 0.01971559213 0.003000003099 2.875673242e-39
0.0001541063379 0.01971559213 0.003000003099 2.875673242e-39
0.0004857598569 0.01971559213 0.003000003099 2.875673242e-39
0.0008174133759 0.01971559213 0.003000003099 3.060064502e-39
0.001149066895 0.01971559213 0.003000003099 3.060064502e-39
0.001480720414 0.01971559213 0.003000003099 2.875673242e-39
0.001812373933 0.01971559213 0.003000003099 2.875673242e-39
0.002136951334 0.01965052307 0.001999986172 2.783480415e-39
0.002467510268 0.01965052307 0.001999986172 2.783480415e-39
0.002798069203 0.01965052307 0.001999986172 2.875676045e-39
0.003128628137 0.01965052307 0.001999986172 3.060067305e-39
0.003459187072 0.01965052307 0.001999986172 2.875676045e-39
0.003777197339 0.01958545595 0.0009999990463 3.060067305e-39
0.004106661722 0.01958545595 0.0009999990463 2.875676045e-39
0.004436126104 0.01958545595 0.0009999990463 2.875676045e-39
0.004765590486 0.01958545595 0.0009999990463 2.692003651e-39
0.005078127994 0.01952038883 1.192092897e-08 2.692003651e-39
0.005406497825 0.01952038883 1.192092897e-08 2.784199281e-39
0.005734867655 0.01952038883 1.192092897e-08 3.060786171e-39
0.006063237486 0.01952038883 1.192092897e-08 3.060786171e-39
0.006391607316 0.01952038883 1.192092897e-08 2.784199281e-39
0.006719977146 0.01952038883 1.192092897e-08 2.968590541e-39
0.00702485209 0.01945531977 -0.001000005007 2.784199281e-39
0.007352127336 0.01945531977 -0.001000005007 3.060067305e-39
0.007679402582 0.01945531977 -0.001000005007 3.152262934e-39
0.008006677828 0.01945531977 -0.001000005007 3.152262934e-39
0.008306080679 0.01939025264 -0.001999992132 3.152262934e-39
0.008632261373 0.01939025264 -0.001999992132 2.966792675e-39
0.008958442067 0.01939025264 -0.001999992132 2.874597045e-39
0.009284622761 0.01939025264 -0.001999992132 3.058988305e-39
0.009610803455 0.01939025264 -0.001999992132 3.243379564e-39
0.009936984149 0.01939025264 -0.001999992132 3.335575194e-39
0.01022872411 0.01932518358 -0.00300000906 3.335575194e-39
0.01055381022 0.01932518358 -0.00300000906 3.519247588e-39
0.01087889633 0.01932518358 -0.00300000906 3.703638848e-39
0.01120398244 0.01932518358 -0.00300000906 4.438685753e-39
0.01152906855 0.01932518358 -0.00300000906 4.254294494e-39
0.01185415466 0.01932518358 -0.00300000906 5.44743988e-39
0.01338847114 0.02069161061 0.01799998879 1.38340052e-38
0.01373654313 0.02069161061 0.01799998879 1.512474402e-38
0.01408461513 0.02069161061 0.01799998879 1.493747589e-38
0.01443268712 0.02069161061 0.01799998879 1.456869337e-38
0.01478075911 0.02069161061 0.01799998879 1.512078815e-38
0.01512883111 0.02069161061 0.01799998879 1.512078815e-38
0.0154769031 0.02069161061 0.01799998879 1.521262084e-38
0.0158249751 0.02069161061 0.01799998879 1.475164269e-38
0.01617304709 0.02069161061 0.01799998879 1.447397681e-38
0.01652111908 0.02069161061 0.01799998879 1.438178118e-38
0.01686919108 0.02069161061 0.01799998879 1.438213711e-38
0.01721726307 0.02069161061 0.01799998879 1.401335459e-38
0.01756533507 0.02069161061 0.01799998879 1.37367677e-38
0.01791340706 0.02069161061 0.01799998879 1.438213711e-38
0.01826147906 0.02069161061 0.01799998879 1.447433274e-38
0.01860955105 0.02069161061 0.01799998879 1.447433274e-38
0.01895762304 0.02069161061 0.01799998879 1.484311525e-38
0.01930569504 0.02069161061 0.01799998879 1.475091962e-38
0.01965376703 0.02069161061 0.01799998879 1.401335459e-38
0.02000183903 0.02069161061 0.01799998879 1.447433274e-38
0.02034991102 0.02069161061 0.01799998879 1.447433274e-38
0.02069798302 0.02069161061 0.01799998879 1.456652837e-38
0.02104605501 0.02069161061 0.01799998879 1.475091962e-38
0.021394127 0.02069161061 0.01799998879 1.447433274e-38
0.021742199 0.02069161061 0.01799998879 1.447433274e-38
0.02209027099 0.02069161061 0.01799998879 1.456652837e-38
0.02236778306 0.02062654348 0.01700000167 1.46576492e-38
0.02271476051 0.02062654348 0.01700000167 1.484204046e-38
0.02306173795 0.02062654348 0.01700000167 1.530301861e-38
0.02340871539 0.02062654348 0.01700000167 1.530301861e-38
0.02375569283 0.02062654348 0.01700000167 1.502715058e-38
-0.02785579595 0.02090729163 0.01600001454 1.521262084e-38
-0.02750991305 0.02090729163 0.01600001454 1.502822958e-38
-0.02716403016 0.02090729163 0.01600001454 1.502822958e-38
-0.02681814727 0.02090729163 0.01600001454 1.521262084e-38
-0.02647226438 0.02090729163 0.01600001454 1.521262084e-38
-0.02612638149 0.02090729163 0.01600001454 1.438286018e-38
-0.0257804986 0.02090729163 0.01600001454 1.53970121e-38
-0.02543461571 0.02090729163 0.01600001454 1.53970121e-38
-0.02508873282 0.02090729163 0.01600001454 1.548920773e-38
-0.02474284993 0.02090729163 0.01600001454 1.548920773e-38
-0.02439696704 0.02090729163 0.01600001454 1.585799025e-38
-0.02405108415 0.02090729163 0.01600001454 1.53970121e-38
-0.02370520126 0.02090729163 0.01600001454 1.530481647e-38
-0.02335931837 0.02090729163 0.01600001454 1.493603676e-38
-0.02301343548 0.02090729163 0.01600001454 1.493603676e-38
-0.02266755259 0.02090729163 0.01600001454 1.548921054e-38
-0.0223216697 0.02090729163 0.01600001454 1.539701491e-38
-0.02197578681 0.02090729163 0.01600001454 1.530481928e-38
-0.02162990392 0.02090729163 0.01600001454 1.493603676e-38
-0.02128402103 0.02090729163 0.01600001454 1.493603395e-38
-0.02093813814 0.02090729163 0.01600001454 1.493603395e-38
-0.02059225525 0.02090729163 0.01600001454 1.530481647e-38
-0.02024637236 0.02090729163 0.01600001454 1.502822958e-38
-0.01990048947 0.02090729163 0.01600001454 1.521262084e-38
-0.01955460658 0.02090729163 0.01600001454 1.521262084e-38
-0.01920872369 0.02090729163 0.01600001454 1.502822958e-38
-0.0188628408 0.02090729163 0.01600001454 1.484383832e-38
-0.01845835895 0.0208411282 0.01499999762 1.475164269e-38
-0.01811357064 0.0208411282 0.01499999762 1.484383832e-38
-0.01776878234 0.0208411282 0.01499999762 1.493603395e-38
-0.01742399403 0.0208411282 0.01499999762 1.493603395e-38
-0.01707920573 0.0208411282 0.01499999762 1.484383832e-38
-0.01673441742 0.0208411282 0.01499999762 1.475164269e-38
-0.01638962912 0.0208411282 0.01499999762 1.502822958e-38
-0.01604484081 0.0208411282 0.01499999762 1.493603395e-38
-0.01570005251 0.0208411282 0.01499999762 1.493639409e-38
-0.0153552642 0.0208411282 0.01499999762 1.456761157e-38
-0.01257198175 0.02024566717 0.005999994278 7.473945871e-39
-0.01219705471 0.02017950571 0.005000007153 7.012967722e-39
-0.01186321206 0.02017950571 0.005000007153 4.990061667e-39
-0.0115293694 0.02017950571 0.005000007153 4.805670407e-39
-0.01119552674 0.02017950571 0.005000007153 3.518168588e-39
-0.01086168409 0.02017950571 0.005000007153 3.886951108e-39
-0.01052784143 0.02017950571 0.005000007153 3.978790808e-39
-0.01019399878 0.02017950571 0.005000007153 3.886595178e-39
-0.009860156123 0.02017950571 0.005000007153 3.334500398e-39
-0.009526313467 0.02017950571 0.005000007153 3.426696028e-39
-0.009162331054 0.02011334227 0.003999990225 3.151907005e-39
-0.008829582983 0.02011334227 0.003999990225 3.059711375e-39
-0.008496834912 0.02011334227 0.003999990225 3.059711375e-39
-0.008164086841 0.02011334227 0.003999990225 3.244102635e-39
-0.00783133877 0.02011334227 0.003999990225 3.244458564e-39
-0.007498590699 0.02011334227 0.003999990225 3.244458564e-39
-0.00714227108 0.02004718081 0.003000003099 3.244458564e-39
-0.006810617561 0.02004718081 0.003000003099 3.152262934e-39
-0.006478964042 0.02004718081 0.003000003099 3.336651392e-39
-0.006147310523 0.02004718081 0.003000003099 3.336651392e-39
-0.005796463092 0.01998101738 0.001999986172 3.336651392e-39
-0.005465904157 0.01998101738 0.001999986172 3.244455762e-39
-0.005135345223 0.01998101738 0.001999986172 3.244455762e-39
-0.004804786289 0.01998101738 0.001999986172 3.152260132e-39
-0.004474227354 0.01998101738 0.001999986172 2.599805219e-39
-0.00414366842 0.01998101738 0.001999986172 2.968587738e-39
-0.003813109485 0.01998101738 0.001999986172 2.784196479e-39
-0.003482550551 0.01998101738 0.001999986172 2.692000849e-39
-0.003151991616 0.01998101738 0.001999986172 2.692000849e-39
-0.002821432682 0.01998101738 0.001999986172 3.060783368e-39
-0.002499121814 0.02004718081 0.003000003099 2.968587738e-39
-0.002167468295 0.02004718081 0.003000003099 2.784196479e-39
-0.001835814776 0.02004718081 0.003000003099 2.784196479e-39
-0.001499196944 0.01998101738 0.001999986172 2.968587738e-39
-0.00116863801 0.01998101738 0.001999986172 2.875673242e-39
-0.0008408542191 0.02004718081 0.003000003099 2.875673242e-39
-0.0005092007001 0.02004718081 0.003000003099 2.783477612e-39
-0.0001775471811 0.02004718081 0.003000003099 3.060064502e-39
0.0001541063379 0.02004718081 0.003000003099 3.060064502e-39
0.0004857598569 0.02004718081 0.003000003099 2.875673242e-39
0.0008174133759 0.02004718081 0.003000003099 2.875673242e-39
0.001149066895 0.02004718081 0.003000003099 2.875673242e-39
0.001480720414 0.02004718081 0.003000003099 2.875676045e-39
0.001812373933 0.02004718081 0.003000003099 2.875676045e-39
0.002136951334 0.01998101738 0.001999986172 3.060067305e-39
0.002467510268 0.01998101738 0.001999986172 2.783480415e-39
0.002798069203 0.01998101738 0.001999986172 3.060067305e-39
0.003128628137 0.01998101738 0.001999986172 3.152262934e-39
0.003459187072 0.01998101738 0.001999986172 3.244455762e-39
0.003777197339 0.01991485592 0.0009999990463 3.152260132e-39
0.004106661722 0.01991485592 0.0009999990463 3.060064502e-39
0.004436126104 0.01991485592 0.0009999990463 3.060064502e-39
0.004765590486 0.01991485592 0.0009999990463 3.152260132e-39
0.005078127994 0.01984869446 1.192092897e-08 2.783477612e-39
0.005406497825 0.01984869446 1.192092897e-08 2.784196479e-39
0.005734867655 0.01984869446 1.192092897e-08 2.968587738e-39
0.006063237486 0.01984869446 1.192092897e-08 2.784196479e-39
0.006391607316 0.01984869446 1.192092897e-08 2.784196479e-39
0.006719977146 0.01984869446 1.192092897e-08 2.784196479e-39
0.00702485209 0.01978253103 -0.001000005007 2.692000849e-39
0.007352127336 0.01978253103 -0.001000005007 2.783477612e-39
0.007679402582 0.01978253103 -0.001000005007 3.152260132e-39
0.008006677828 0.01978253103 -0.001000005007 3.335572392e-39
0.008306080679 0.01971636957 -0.001999992132 3.058985502e-39
0.008632261373 0.01971636957 -0.001999992132 2.229224833e-39
0.008958442067 0.01971636957 -0.001999992132 2.690202983e-39
0.009284622761 0.01971636957 -0.001999992132 2.874594242e-39
0.009610803455 0.01971636957 -0.001999992132 3.243376762e-39
0.009936984149 0.01971636957 -0.001999992132 3.058985502e-39
0.01022872411 0.01965020613 -0.00300000906 3.243376762e-39
0.01055381022 0.01965020613 -0.00300000906 3.519247588e-39
0.01087889633 0.01965020613 -0.00300000906 3.980225737e-39
0.01120398244 0.01965020613 -0.00300000906 4.254294494e-39
0.01152906855 0.01965020613 -0.00300000906 3.793316344e-39
0.01185415466 0.01965020613 -0.00300000906 5.17085299e-39
0.01334636957 0.02097345309 0.01700000167 1.484707813e-38
0.01369334701 0.02097345309 0.01700000167 1.540025191e-38
0.01404032445 0.02097345309 0.01700000167 1.493639409e-38
0.01438730189 0.02097345309 0.01700000167 1.484419846e-38
0.01473427934 0.02097345309 0.01700000167 1.493603395e-38
0.01508125678 0.02097345309 0.01700000167 1.475164269e-38
0.01542823422 0.02097345309 0.01700000167 1.502715058e-38
0.0158249751 0.02103961455 0.01799998879 1.484275933e-38
0.01617304709 0.02103961455 0.01799998879 1.438178118e-38
0.01652111908 0.02103961455 0.01799998879 1.447397681e-38
0.01686919108 0.02103961455 0.01799998879 1.438213711e-38
0.01721726307 0.02103961455 0.01799998879 1.456652837e-38
0.01756533507 0.02103961455 0.01799998879 1.447433274e-38
0.01791340706 0.02103961455 0.01799998879 1.438213711e-38
0.01826147906 0.02103961455 0.01799998879 1.447433274e-38
0.0185510312 0.02097345309 0.01700000167 1.456652837e-38
0.01889800864 0.02097345309 0.01700000167 1.475091962e-38
0.01924498608 0.02097345309 0.01700000167 1.548848466e-38
0.01965376703 0.02103961455 0.01799998879 1.401335459e-38
0.01993894097 0.02097345309 0.01700000167 1.428994148e-38
0.02028591841 0.02097345309 0.01700000167 1.456652837e-38
0.02063289585 0.02097345309 0.01700000167 1.456652837e-38
0.0209798733 0.02097345309 0.01700000167 1.484311525e-38
0.02132685074 0.02097345309 0.01700000167 1.456652837e-38
0.02167382818 0.02097345309 0.01700000167 1.456652837e-38
0.02202080562 0.02097345309 0.01700000167 1.456652837e-38
0.02236778306 0.02097345309 0.01700000167 1.475091962e-38
0.02271476051 0.02097345309 0.01700000167 1.511970214e-38
0.02306173795 0.02097345309 0.01700000167 1.511934621e-38
0.02340871539 0.02097345309 0.01700000167 1.447397681e-38
0.02375569283 0.02097345309 0.01700000167 1.493495495e-38
-0.02785579595 0.0212531069 0.01600001454 1.475164269e-38
-0.02750991305 0.0212531069 0.01600001454 1.493603395e-38
-0.02716403016 0.0212531069 0.01600001454 1.502822958e-38
-0.02681814727 0.0212531069 0.01600001454 1.521262084e-38
-0.02647226438 0.0212531069 0.01600001454 1.530481647e-38
-0.02612638149 0.0212531069 0.01600001454 1.484383832e-38
-0.0257804986 0.0212531069 0.01600001454 1.530481647e-38
-0.02535412506 0.02118584909 0.01499999762 1.530481647e-38
-0.02500933676 0.02118584909 0.01499999762 1.521262084e-38
-0.02466454845 0.02118584909 0.01499999762 1.548920773e-38
-0.02431976015 0.02118584909 0.01499999762 1.585799025e-38
-0.02397497184 0.02118584909 0.01499999762 1.548920773e-38
-0.02363018354 0.02118584909 0.01499999762 1.521262084e-38
-0.02328539523 0.02118584909 0.01499999762 1.493603676e-38
-0.02294060692 0.02118584909 0.01499999762 1.493603676e-38
-0.02259581862 0.02118584909 0.01499999762 1.530481928e-38
-0.02225103031 0.02118584909 0.01499999762 1.521262365e-38
-0.02190624201 0.02118584909 0.01499999762 1.502823239e-38
-0.0215614537 0.02118584909 0.01499999762 1.521262365e-38
-0.0212166654 0.02118584909 0.01499999762 1.493603395e-38
-0.02087187709 0.02118584909 0.01499999762 1.493603395e-38
-0.02052708878 0.02118584909 0.01499999762 1.521262084e-38
-0.02018230048 0.02118584909 0.01499999762 1.530481647e-38
-0.01983751217 0.02118584909 0.01499999762 1.502822958e-38
-0.01949272387 0.02118584909 0.01499999762 1.502822958e-38
-0.01914793556 0.02118584909 0.01499999762 1.493603395e-38
-0.01880314726 0.02118584909 0.01499999762 1.484383832e-38
-0.01845835895 0.02118584909 0.01499999762 1.475164269e-38
-0.01811357064 0.02118584909 0.01499999762 1.475164269e-38
-0.01776878234 0.02118584909 0.01499999762 1.475164269e-38
-0.01742399403 0.02118584909 0.01499999762 1.475164269e-38
-0.01707920573 0.02118584909 0.01499999762 1.465944707e-38
-0.01673441742 0.02118584909 0.01499999762 1.475164269e-38
-0.01638962912 0.02118584909 0.01499999762 1.502822958e-38
-0.01599390546 0.0211185933 0.01400001049 1.521262084e-38
-0.01565021171 0.0211185933 0.01400001049 1.484419846e-38
-0.01530651796 0.0211185933 0.01400001049 1.493639409e-38
-0.01257198175 0.02058053889 0.005999994278 6.183209856e-39
-0.01219705471 0.02051328309 0.005000007153 6.551992375e-39
-0.01186321206 0.02051328309 0.005000007153 4.436887887e-39
-0.0115293694 0.02051328309 0.005000007153 4.529083517e-39
-0.01119552674 0.02051328309 0.005000007153 3.886951108e-39
-0.01086168409 0.02051328309 0.005000007153 3.610364218e-39
-0.01052784143 0.02051328309 0.005000007153 3.610008288e-39
-0.01019399878 0.02051328309 0.005000007153 3.702203918e-39
-0.009860156123 0.02051328309 0.005000007153 3.426696028e-39
-0.009526313467 0.02051328309 0.005000007153 3.518891658e-39
-0.009162331054 0.02044602529 0.003999990225 3.244102635e-39
-0.008829582983 0.02044602529 0.003999990225 3.059711375e-39
-0.008496834912 0.02044602529 0.003999990225 3.151907005e-39
-0.008164086841 0.02044602529 0.003999990225 3.151907005e-39
-0.00783133877 0.02044602529 0.003999990225 3.151907005e-39
-0.007498590699 0.02044602529 0.003999990225 3.244102635e-39
-0.00714227108 0.02037876949 0.003000003099 3.336654194e-39
-0.006810617561 0.02037876949 0.003000003099 3.060067305e-39
-0.006478964042 0.02037876949 0.003000003099 3.336654194e-39
-0.006147310523 0.02037876949 0.003000003099 3.336654194e-39
-0.005796463092 0.02031151169 0.001999986172 3.244455762e-39
-0.005465904157 0.02031151169 0.001999986172 3.152260132e-39
-0.005135345223 0.02031151169 0.001999986172 3.152260132e-39
-0.004804786289 0.02031151169 0.001999986172 3.152260132e-39
-0.004474227354 0.02031151169 0.001999986172 3.244455762e-39
-0.00414366842 0.02031151169 0.001999986172 3.060064502e-39
-0.003813109485 0.02031151169 0.001999986172 2.783477612e-39
-0.003482550551 0.02031151169 0.001999986172 2.783477612e-39
-0.003151991616 0.02031151169 0.001999986172 2.783477612e-39
-0.002821432682 0.02031151169 0.001999986172 2.875673242e-39
-0.002499121814 0.02037876949 0.003000003099 3.152260132e-39
-0.002167468295 0.02037876949 0.003000003099 3.060064502e-39
-0.001835814776 0.02037876949 0.003000003099 3.152260132e-39
-0.001504161257 0.02037876949 0.003000003099 3.244455762e-39
-0.001176377351 0.02044602529 0.003999990225 3.336651392e-39
-0.0008436292797 0.02044602529 0.003999990225 2.875673242e-39
-0.0005108812088 0.02044602529 0.003999990225 3.060064502e-39
-0.0001781331378 0.02044602529 0.003999990225 3.152260132e-39
0.0001546149331 0.02044602529 0.003999990225 3.335572392e-39
0.0004873630041 0.02044602529 0.003999990225 3.335572392e-39
0.000820111075 0.02044602529 0.003999990225 2.966792675e-39
0.001152859146 0.02044602529 0.003999990225 2.874597045e-39
0.001485607217 0.02044602529 0.003999990225 3.058988305e-39
0.001812373933 0.02037876949 0.003000003099 3.243379564e-39
0.002144027452 0.02037876949 0.003000003099 3.243023635e-39
0.002475680971 0.02037876949 0.003000003099 3.058632375e-39
0.00280733449 0.02037876949 0.003000003099 2.966792675e-39
0.003128628137 0.02031151169 0.001999986172 3.058988305e-39
0.003459187072 0.02031151169 0.001999986172 3.243379564e-39
0.003789746006 0.02031151169 0.001999986172 3.519966454e-39
0.00412030494 0.02031151169 0.001999986172 3.335575194e-39
0.004450863875 0.02031151169 0.001999986172 3.335575194e-39
0.004765590486 0.02024425589 0.0009999990463 2.875676045e-39
0.005095054869 0.02024425589 0.0009999990463 2.783480415e-39
0.005424519251 0.02024425589 0.0009999990463 2.784199281e-39
0.005753983634 0.02024425589 0.0009999990463 2.968590541e-39
0.006083448016 0.02024425589 0.0009999990463 2.968590541e-39
0.006412912399 0.02024425589 0.0009999990463 3.24517743e-39
0.006742376781 0.02024425589 0.0009999990463 2.784199281e-39
0.007071841163 0.02024425589 0.0009999990463 2.784199281e-39
0.007376716807 0.02017700009 1.192092897e-08 3.060067305e-39
0.007705086638 0.02017700009 1.192092897e-08 3.152262934e-39
0.008033456468 0.02017700009 1.192092897e-08 3.335575194e-39
0.008361826299 0.02017700009 1.192092897e-08 3.243379564e-39
0.008690196129 0.02017700009 1.192092897e-08 3.058988305e-39
0.008988503566 0.02010974229 -0.001000005007 3.427770824e-39
0.009315778811 0.02010974229 -0.001000005007 2.966792675e-39
0.009643054057 0.02010974229 -0.001000005007 2.966792675e-39
0.009936984149 0.02004248649 -0.001999992132 3.335575194e-39
0.01026316484 0.02004248649 -0.001999992132 3.335575194e-39
0.01058934554 0.02004248649 -0.001999992132 3.427770824e-39
0.01091552623 0.02004248649 -0.001999992132 3.704357714e-39
0.01120398244 0.01997522869 -0.00300000906 4.439404619e-39
0.01152906855 0.01997522869 -0.00300000906 3.88623084e-39
0.01185415466 0.01997522869 -0.00300000906 5.631115076e-39
0.01334636957 0.0213203627 0.01700000167 1.410879422e-38
0.01369334701 0.0213203627 0.01700000167 1.521514178e-38
0.01404032445 0.0213203627 0.01700000167 1.475200283e-38
0.01438730189 0.0213203627 0.01700000167 1.475200283e-38
0.01473427934 0.0213203627 0.01700000167 1.484383832e-38
0.01508125678 0.0213203627 0.01700000167 1.429066455e-38
0.01542823422 0.0213203627 0.01700000167 1.428958555e-38
0.01577521166 0.0213203627 0.01700000167 1.419738992e-38
0.0161221891 0.0213203627 0.01700000167 1.345982488e-38
0.01646916655 0.0213203627 0.01700000167 1.428958555e-38
0.01681614399 0.0213203627 0.01700000167 1.428994148e-38
0.01716312143 0.0213203627 0.01700000167 1.428994148e-38
0.01751009887 0.0213203627 0.01700000167 1.428994148e-38
0.01785707632 0.0213203627 0.01700000167 1.428994148e-38
0.01820405376 0.0213203627 0.01700000167 1.447433274e-38
0.0185510312 0.0213203627 0.01700000167 1.475091962e-38
0.01889800864 0.0213203627 0.01700000167 1.447433274e-38
0.01924498608 0.0213203627 0.01700000167 1.401335459e-38
0.01959196353 0.0213203627 0.01700000167 1.382896333e-38
0.01993894097 0.0213203627 0.01700000167 1.401335459e-38
0.02028591841 0.0213203627 0.01700000167 1.456652837e-38
0.02063289585 0.0213203627 0.01700000167 1.456652837e-38
0.0209798733 0.0213203627 0.01700000167 1.484311525e-38
0.02132685074 0.0213203627 0.01700000167 1.484311525e-38
0.02167382818 0.0213203627 0.01700000167 1.447433274e-38
0.02202080562 0.0213203627 0.01700000167 1.475091962e-38
0.02236778306 0.0213203627 0.01700000167 1.484239639e-38
0.02271476051 0.0213203627 0.01700000167 1.530337454e-38
0.02306173795 0.0213203627 0.01700000167 1.511898328e-38
0.02333487181 0.0212531069 0.01600001454 1.45658095e-38
0.02368075471 0.0212531069 0.01600001454 1.475091962e-38
-0.02785579595 0.02159892216 0.01600001454 1.465944707e-38
-0.02750991305 0.02159892216 0.01600001454 1.484383832e-38
-0.02716403016 0.02159892216 0.01600001454 1.493603395e-38
-0.02673327829 0.02153056999 0.01499999762 1.521262084e-38
-0.02638848998 0.02153056999 0.01499999762 1.530481647e-38
-0.02604370168 0.02153056999 0.01499999762 1.53970121e-38
-0.02569891337 0.02153056999 0.01499999762 1.548920773e-38
-0.02535412506 0.02153056999 0.01499999762 1.521262084e-38
-0.02500933676 0.02153056999 0.01499999762 1.493603395e-38
