# .PCD v0.7 - Point Cloud Data file format
VERSION 0.7
FIELDS x y z
SIZE 4 4 4
TYPE F F F
COUNT 1 1 1
WIDTH 1352
HEIGHT 1
VIEWPOINT 0 0 0 1 0 0 0
POINTS 1352
DATA ascii
0.25146034 -0.095447436 -0.070958287
0.19490537 -0.083249442 -0.079598531
0.20454417 -0.085047297 -0.078465976
0.21444525 -0.084694184 -0.0769554
0.22415012 -0.085037649 -0.07515578
0.23476335 -0.085074976 -0.073510714
0.24427682 -0.084835812 -0.07171718
0.25 -0.089385778 -0.070343383
0.19381161 -0.075975277 -0.079362169
0.20622776 -0.07569278 -0.078552835
0.21348985 -0.074692272 -0.076771826
0.22457871 -0.075357817 -0.075709179
0.23353687 -0.074774578 -0.07397522
0.24315155 -0.075421177 -0.072000854
0.19675779 -0.065378189 -0.079319127
0.20507179 -0.065105185 -0.0785686
0.21369474 -0.064684696 -0.076744504
0.22527024 -0.064540744 -0.075507045
0.234963 -0.064778797 -0.072934486
0.24052379 -0.068337947 -0.070909113
0.197115 -0.054952785 -0.079701044
0.20375825 -0.054656882 -0.078457586
0.21409087 -0.055142004 -0.077103399
0.22452895 -0.055045195 -0.075581744
0.23286951 -0.055261627 -0.072734669
0.19796436 -0.044390887 -0.079730645
0.20322149 -0.044887584 -0.078479491
0.21506922 -0.045068886 -0.077112995
0.22468373 -0.044926461 -0.075141452
0.23210435 -0.044965327 -0.072546266
0.24063636 -0.040882036 -0.071772873
0.19716643 -0.035270363 -0.079422124
0.20398305 -0.035043467 -0.078442387
0.21404214 -0.034969293 -0.077113993
0.22493079 -0.035107184 -0.075553812
0.23492368 -0.035147697 -0.073827982
0.24363111 -0.035231374 -0.072155371
0.25172225 -0.032852441 -0.071109958
0.1972039 -0.02493244 -0.079348832
0.20522413 -0.02477424 -0.078471541
0.21499243 -0.025060216 -0.077220872
0.22300017 -0.025089944 -0.075479053
0.23506431 -0.025099615 -0.074168228
0.24412726 -0.024515348 -0.072690792
0.25412384 -0.02511934 -0.071356922
0.1962817 -0.015776286 -0.079509623
0.20452632 -0.015273206 -0.078432478
0.21502168 -0.014953254 -0.077180631
0.22469176 -0.01526935 -0.075568646
0.23407964 -0.01506154 -0.073865004
0.24444531 -0.015123645 -0.072512582
0.25474074 -0.014779432 -0.071069419
0.26044449 -0.013403728 -0.070081986
0.19662076 -0.0043432764 -0.079444274
0.20391777 -0.0079168351 -0.078643277
0.2137412 -0.0053530266 -0.077226855
0.22402908 -0.0050438186 -0.0752289
0.23505485 -0.0062409057 -0.073796026
0.2444417 -0.0046591177 -0.072639182
0.25403768 -0.0054014493 -0.071116641
0.26048005 -0.0049662669 -0.070178464
0.19734083 0.0044292766 -0.079397015
0.20547789 0.0056300615 -0.078269064
0.21553434 0.0052620932 -0.076895081
0.22508252 0.0053682853 -0.074850939
0.23256576 0.0042332918 -0.073186971
0.24579835 0.0047233524 -0.072715685
0.2541827 0.0051752063 -0.070888713
0.26000002 0.00091979309 -0.070099115
0.19760013 0.015145532 -0.079626322
0.20353849 0.015072864 -0.078646854
0.21453619 0.01492759 -0.077076629
0.22482955 0.014321785 -0.074917331
0.2326 0.0161181 -0.073335297
0.24428123 0.014432573 -0.072814465
0.25458264 0.015379061 -0.071166895
0.26000002 0.014884721 -0.070099115
0.19691943 0.024112329 -0.079779863
0.20404938 0.025436338 -0.078443713
0.21488351 0.023979273 -0.076957919
0.2241275 0.025125049 -0.075402655
0.23326245 0.02275895 -0.073847212
0.24393995 0.025471216 -0.072734646
0.2537798 0.024906471 -0.070974909
0.19708988 0.035527259 -0.07948567
0.20459443 0.03498422 -0.07814867
0.21364766 0.035148691 -0.076761074
0.22490415 0.035664152 -0.075961925
0.23405939 0.036439672 -0.074151047
0.24437648 0.03458925 -0.072834209
0.25245321 0.034441888 -0.070675537
0.26296428 0.037975006 -0.070516728
0.27000001 0.034616835 -0.070254728
0.1974715 0.044229537 -0.079535931
0.20511574 0.045294303 -0.078384116
0.21403997 0.044155687 -0.07658609
0.22468576 0.045618199 -0.075924926
0.23336598 0.044983242 -0.073799811
0.24446271 0.04291654 -0.072495438
0.25411862 0.045600109 -0.071346469
0.26159465 0.044342987 -0.070261136
0.19801387 0.054489292 -0.079773031
0.20414613 0.05522535 -0.078846365
0.21387379 0.055238444 -0.077082656
0.22494507 0.054908775 -0.075361937
0.23467173 0.054602187 -0.073542215
0.24339654 0.054862209 -0.072561011
0.25481275 0.055006471 -0.071534187
0.26000002 0.056881435 -0.070099115
0.19520415 0.06664212 -0.079406843
0.2060423 0.064847969 -0.078827031
0.21318994 0.065166421 -0.076988526
0.22445601 0.065099366 -0.075808078
0.23524389 0.065104201 -0.074356176
0.2440436 0.065115944 -0.072162941
0.25392154 0.062023271 -0.071330249
0.2633 0.066439755 -0.070801355
0.19733335 0.074834205 -0.079455964
0.20514306 0.075130425 -0.078557402
0.21388564 0.075192876 -0.076775931
0.22413297 0.074754447 -0.075722888
0.23640482 0.075848363 -0.07445088
0.24370521 0.074401997 -0.072077192
0.25359184 0.076819189 -0.070894584
0.26401252 0.074800096 -0.071124524
0.19822721 0.084497638 -0.079560228
0.20516057 0.085749008 -0.078678235
0.21251388 0.084184624 -0.076919466
0.22347103 0.084864974 -0.075842083
0.23389424 0.084682532 -0.074288942
0.24486873 0.085030995 -0.072536036
0.25383455 0.085040987 -0.070956089
0.26106253 0.083092086 -0.070077285
0.19724774 0.095120251 -0.079422645
0.20436776 0.094599888 -0.07849957
0.2144862 0.096304134 -0.077613339
0.2238972 0.095091827 -0.075962082
0.23462611 0.094578318 -0.074304491
0.2438882 0.094934352 -0.072674088
0.25510892 0.094929487 -0.071016245
0.26000002 0.099082023 -0.070099115
0.19579776 0.10473277 -0.079398245
0.20523618 0.10510029 -0.07887543
0.21404305 0.10480934 -0.077054694
0.22544514 0.10485906 -0.075458333
0.23481984 0.10531443 -0.074149981
0.24362756 0.10496668 -0.072341092
0.25593901 0.1044426 -0.07107117
0.26060006 0.10480853 -0.070210814
0.19224072 0.11361255 -0.079511434
0.20612207 0.11508516 -0.078878932
0.21410249 0.11511691 -0.076821767
0.2242583 0.11442651 -0.075368255
0.23414549 0.11539281 -0.074363813
0.24396867 0.11521719 -0.072132394
0.25456581 0.11431808 -0.070728295
0.26025003 0.11331688 -0.070350006
0.19583867 0.12636083 -0.079595916
0.20449659 0.12437919 -0.079118825
0.21319866 0.12601249 -0.077616468
0.22581074 0.12607785 -0.075727403
0.23539722 0.12469213 -0.07406918
0.24460272 0.12490576 -0.072027266
0.25438711 0.12707524 -0.070429951
0.2636098 0.12735799 -0.070490755
0.19738705 0.135647 -0.078844547
0.20673811 0.13641995 -0.078043915
0.21274243 0.13603821 -0.07567744
0.22419994 0.13617663 -0.074490473
0.2353131 0.13537975 -0.072308309
0.24393699 0.13312989 -0.071620889
0.25247365 0.13127658 -0.07027974
0.26075003 0.13064748 -0.070147246
0.19662482 0.14195253 -0.076617859
0.20435098 0.14141266 -0.073779866
0.21266665 0.1402933 -0.071392022
0.22100002 0.1401049 -0.072320864
0.3066667 -0.30045012 -0.060558241
0.31390002 -0.30281642 -0.060222246
0.32157144 -0.30483827 -0.060224157
0.29833335 -0.29158315 -0.063122734
0.30438241 -0.29456145 -0.061429478
0.31513888 -0.29525498 -0.060620699
0.3211053 -0.29472062 -0.060414188
0.28775001 -0.28136542 -0.065436989
0.29478881 -0.28425309 -0.063891128
0.3027977 -0.28476617 -0.061939865
0.31462228 -0.28449044 -0.060806546
0.32100001 -0.28919804 -0.060117148
0.27800003 -0.27073044 -0.067104794
0.28574231 -0.27528042 -0.066081963
0.29477906 -0.27510476 -0.064625785
0.3035664 -0.27562287 -0.062305726
0.31426927 -0.27482611 -0.061274249
0.27466094 -0.26393524 -0.067089878
0.28403705 -0.26489416 -0.065609604
0.29456991 -0.26470402 -0.064382076
0.30440354 -0.26451772 -0.062816769
0.3144393 -0.26550475 -0.06125458
0.26539621 -0.25267294 -0.068492234
0.27452195 -0.25483701 -0.066972077
0.28473684 -0.25541818 -0.065833665
0.29477566 -0.25524989 -0.064646378
0.30464786 -0.25467375 -0.062513754
0.31513101 -0.25514174 -0.06093096
0.32115385 -0.25316048 -0.060261764
0.24900001 -0.24307448 -0.069476292
0.25768754 -0.24338675 -0.069811262
0.26448944 -0.24528866 -0.069095559
0.27377361 -0.24522038 -0.067414522
0.2836616 -0.24435472 -0.066048354
0.29486853 -0.24510343 -0.064310119
0.30447054 -0.24524438 -0.062266778
0.31486958 -0.24467427 -0.061296605
0.32076195 -0.24559696 -0.060395155
0.25595742 -0.23405771 -0.069785297
0.26457304 -0.23511064 -0.06891349
0.27480245 -0.23512663 -0.067333661
0.2842719 -0.23502858 -0.06564796
0.29490122 -0.23484701 -0.063908651
0.30443761 -0.23454264 -0.06225336
0.31474552 -0.23491372 -0.061186679
0.3212609 -0.23523308 -0.060493987
0.25661761 -0.22509746 -0.069590554
0.2640219 -0.22492707 -0.068368152
0.27440199 -0.22477056 -0.067414381
0.28393331 -0.22527257 -0.065882616
0.29456761 -0.22541252 -0.064680152
0.30314767 -0.22505823 -0.062986262
0.315449 -0.22497594 -0.061476957
0.3206667 -0.22762315 -0.060456652
0.34200001 -0.22123234 -0.060027581
0.25755098 -0.21485549 -0.069375508
0.26484212 -0.21478389 -0.068836436
0.27444556 -0.21545559 -0.067722075
0.28412047 -0.21522149 -0.066220723
0.29462692 -0.21520871 -0.064807661
0.30361649 -0.21510957 -0.062829539
0.31292301 -0.21489178 -0.061175521
0.34466669 -0.21847697 -0.060221985
0.25707689 -0.20611866 -0.069680795
0.26586047 -0.20577671 -0.069289915
0.27423161 -0.20473157 -0.067408957
0.28446662 -0.20477584 -0.065630026
0.29457906 -0.2051096 -0.064286403
0.30479267 -0.20513688 -0.063078344
0.31273323 -0.20463602 -0.061200898
0.25412503 -0.19371442 -0.069858611
0.26624289 -0.19428954 -0.068776973
0.27442726 -0.19476415 -0.067144483
0.28456008 -0.19521457 -0.06554541
0.29433873 -0.1947411 -0.0646419
0.30493155 -0.19508737 -0.063247927
0.31463245 -0.19564055 -0.06129973
0.3207334 -0.1943218 -0.060368299
0.25650001 -0.18498872 -0.069749847
0.26403689 -0.18542336 -0.06905356
0.27466667 -0.1853403 -0.067567952
0.28389776 -0.18443979 -0.065808296
0.29437506 -0.18494667 -0.064440101
0.30433896 -0.18522348 -0.062810816
0.3132 -0.18712471 -0.061621133
0.32100001 -0.18952565 -0.060117148
0.25805879 -0.1745021 -0.069610193
0.26472172 -0.17462566 -0.068831027
0.27522364 -0.17471492 -0.067472346
0.28517246 -0.17520835 -0.066288523
0.29433346 -0.17459704 -0.063818023
0.30189475 -0.17751478 -0.061990783
0.2564545 -0.16440958 -0.069904923
0.26531625 -0.16523539 -0.068885081
0.27464452 -0.16464144 -0.067554943
0.28440508 -0.16482206 -0.065876402
0.2932581 -0.16580911 -0.06285093
0.25678441 -0.15472643 -0.069667146
0.26424423 -0.15566893 -0.06899114
0.27523631 -0.15480272 -0.067509204
0.2846387 -0.15470609 -0.063676186
0.29027271 -0.15912427 -0.061872825
0.25567138 -0.14499342 -0.069570161
0.26410669 -0.14450955 -0.069209516
0.27548936 -0.14495644 -0.067044236
0.28172353 -0.14577651 -0.062774517
0.25633338 -0.13511132 -0.069907777
0.26498953 -0.13484366 -0.069132797
0.27467337 -0.13519526 -0.064871117
0.25900003 -0.12398005 -0.069829479
0.2647461 -0.12458766 -0.068444923
0.27193058 -0.12581417 -0.064063393
0.25900003 -0.1144536 -0.069829486
0.26484263 -0.11508449 -0.065594919
0.25814292 -0.10304245 -0.066767856
0.26161024 -0.10654682 -0.064935029
0.25486702 -0.095162436 -0.065460779
0.24808453 -0.082770333 -0.06551642
0.25064349 -0.08758045 -0.064877301
0.2438734 -0.074887857 -0.06498681
0.23807712 -0.062915571 -0.064802423
0.24046408 -0.067665525 -0.065408714
0.23381285 -0.054970067 -0.065129109
0.23197374 -0.04657241 -0.065121368
0.24000001 -0.041304499 -0.069599688
0.24100001 -0.039397936 -0.069228299
0.25472009 -0.031853408 -0.069341458
0.25799996 -0.026829146 -0.069373518
0.26461059 -0.023746599 -0.068406306
0.27299997 -0.021258824 -0.067025632
0.259 -0.019189004 -0.069829494
0.26476628 -0.015376911 -0.069319807
0.27481884 -0.015918806 -0.06685023
0.28465524 -0.013447271 -0.06488879
0.29139131 -0.011989133 -0.061660465
0.26476339 -0.0047064652 -0.068909414
0.27425382 -0.0056524347 -0.067576148
0.2841011 -0.00547399 -0.065729931
0.29487035 -0.0059108641 -0.063754968
0.30419183 -0.0035399571 -0.062555201
0.31033334 -0.0008482954 -0.060796034
0.25815785 0.0066287895 -0.069793344
0.26424482 0.0046588173 -0.068838812
0.27489135 0.0054165903 -0.067578934
0.28390256 0.0054798094 -0.065553926
0.29439685 0.0045907511 -0.064413853
0.30491057 0.0047811135 -0.063324675
0.31286946 0.0054957769 -0.061307058
0.25866672 0.014254875 -0.069840372
0.26434445 0.015203877 -0.069193773
0.27464879 0.014870252 -0.067702189
0.28491002 0.014936087 -0.065543137
0.29396433 0.015385472 -0.063838363
0.30474004 0.014794387 -0.063214883
0.31486958 0.014523513 -0.061772678
0.32116669 0.017547518 -0.06081824
0.25826919 0.025469968 -0.069771603
0.26396245 0.024992939 -0.069146626
0.27459323 0.024799481 -0.067730695
0.28379264 0.024734633 -0.065617651
0.29475507 0.024986988 -0.06461779
0.30550909 0.025944229 -0.063963905
0.31394267 0.025025938 -0.061788335
0.32136366 0.021751521 -0.060528256
0.25671428 0.031869601 -0.069523193
0.2654762 0.035025705 -0.069515824
0.2749835 0.034822639 -0.068255432
0.28427404 0.035403412 -0.065909632
0.29427269 0.035090197 -0.064582899
0.30507693 0.03483279 -0.063224554
0.31474647 0.034918327 -0.061261095
0.32100004 0.035051901 -0.060117144
0.26627272 0.045189112 -0.068885498
0.27421921 0.044544164 -0.06748233
0.28491008 0.044744104 -0.066246368
0.2939429 0.045327872 -0.064413346
0.30455562 0.045239657 -0.063504018
0.31446159 0.045275088 -0.061858892
0.32063162 0.044840474 -0.060365081
0.259 0.051971436 -0.069829494
0.26536831 0.055027451 -0.069058955
0.27378896 0.054961406 -0.067013681
0.28468752 0.054233503 -0.066250615
0.29386365 0.055027068 -0.064308688
0.30394349 0.055096585 -0.062986031
0.31440279 0.054700568 -0.061572511
0.32075 0.054041274 -0.060258515
0.26580453 0.064656101 -0.068797439
0.27397883 0.06395416 -0.06748049
0.28426668 0.065581478 -0.066797279
0.29490092 0.064822495 -0.064770818
0.30440816 0.06499882 -0.062510334
0.31514001 0.064584441 -0.061561123
0.32100004 0.065498598 -0.060475808
0.26710016 0.075034529 -0.068906993
0.27521041 0.075513475 -0.067022532
0.28304651 0.072790787 -0.066147208
0.2959384 0.074335575 -0.065246485
0.30372086 0.075434476 -0.063008592
0.3146818 0.075600617 -0.061685715
0.32257143 0.074634612 -0.060678437
0.259 0.088648297 -0.069829494
0.26577222 0.08521685 -0.069026917
0.27383676 0.084832519 -0.066988729
0.28365213 0.085486233 -0.065922581
0.29618001 0.086096652 -0.065593839
0.30301937 0.085018732 -0.063387878
0.31386843 0.084609963 -0.061669827
0.32300004 0.085363209 -0.0608171
0.25900003 0.09382692 -0.069829486
0.26449993 0.094343141 -0.068911113
0.27379414 0.095074959 -0.067491703
0.28535715 0.095797211 -0.066682182
0.29352641 0.094591886 -0.065271713
0.30425864 0.0946334 -0.063462779
0.31465143 0.096026063 -0.061698936
0.32321215 0.093430549 -0.060734574
0.26486346 0.10538051 -0.069177836
0.27437633 0.1049327 -0.067856543
0.28454638 0.10512307 -0.066377752
0.29424727 0.10526846 -0.064794324
0.30435809 0.10447523 -0.063301876
0.3145968 0.10390421 -0.06144987
0.32116669 0.10715572 -0.060399473
0.25572225 0.11859661 -0.069908895
0.26399991 0.11484716 -0.069131948
0.27573684 0.11490972 -0.067748047
0.28448725 0.11488703 -0.066027217
0.29482079 0.11539472 -0.064033478
0.30337998 0.11520757 -0.062262926
0.31578049 0.11546058 -0.062323581
0.32126844 0.11556327 -0.061050594
0.2556667 0.12038182 -0.069932096
0.26712763 0.12495869 -0.069394961
0.27461538 0.12543477 -0.067623742
0.28512675 0.12630501 -0.064434975
0.29375643 0.124291 -0.062418662
0.30382508 0.12339588 -0.060949992
0.31461298 0.12285326 -0.060874078
0.32107693 0.12151409 -0.060711484
0.20874999 0.1398872 -0.064138234
0.21519893 0.13959648 -0.064825177
0.22478247 0.13884419 -0.065179616
0.23427744 0.13714255 -0.065351248
0.24476813 0.13605188 -0.065053381
0.25417778 0.13416213 -0.065820046
0.26464826 0.13302077 -0.065653786
0.27359056 0.13176757 -0.063786604
0.28231707 0.1307018 -0.062163882
0.19860001 0.14244071 -0.064197339
0.20471662 0.14128637 -0.065207876
0.21165721 0.14040712 -0.065910473
0.377 -0.37024546 -0.050207924
0.37524241 -0.36471274 -0.051064994
0.38317385 -0.36344519 -0.050831039
0.36662501 -0.3536388 -0.052112106
0.37460005 -0.35503983 -0.051928893
0.38215789 -0.35590956 -0.050750609
0.34766671 -0.34061909 -0.055297434
0.35443252 -0.34369344 -0.053637367
0.36462501 -0.34449589 -0.052664455
0.37479421 -0.34428364 -0.051204
0.38000003 -0.34905696 -0.050607461
0.33900002 -0.33173016 -0.05631128
0.34605396 -0.33398867 -0.0555861
0.35372543 -0.33500823 -0.053986426
0.36502266 -0.33469564 -0.052980315
0.37377548 -0.33472809 -0.051296648
0.32842857 -0.32132882 -0.058637884
0.33432549 -0.32389069 -0.057100434
0.34398037 -0.32486418 -0.05603613
0.354 -0.32563445 -0.054439332
0.36527273 -0.32449725 -0.053754564
0.37397569 -0.32549697 -0.051126987
0.31799999 -0.31055164 -0.059803084
0.32512513 -0.31429848 -0.059017893
0.33390912 -0.31513399 -0.057637192
0.34368098 -0.31582969 -0.056117412
0.35533339 -0.31462875 -0.055527661
0.36405358 -0.31530949 -0.053397316
0.37459639 -0.3148621 -0.051442921
0.31488889 -0.30661312 -0.059874635
0.32512978 -0.30529484 -0.059042782
0.33449998 -0.30472592 -0.057079475
0.34323817 -0.30507737 -0.055820066
0.35547376 -0.30437782 -0.054947089
0.36460522 -0.30485353 -0.053925835
0.37371674 -0.30469358 -0.052046709
0.38258338 -0.30410171 -0.050611991
0.32574195 -0.29496616 -0.058674868
0.33287099 -0.29493809 -0.056298304
0.34593749 -0.29471058 -0.055780128
0.3534545 -0.29537997 -0.05493002
0.36438462 -0.29626161 -0.054655988
0.37496069 -0.29572013 -0.052730691
0.38204548 -0.29574385 -0.050673496
0.31900001 -0.28064269 -0.059742589
0.32505885 -0.28517815 -0.058165293
0.33385712 -0.28499934 -0.056215592
0.34387502 -0.28485137 -0.05525979
0.35275 -0.28791547 -0.054441098
0.36418188 -0.28451529 -0.053171042
0.37469229 -0.28505462 -0.051658139
0.38083336 -0.28771028 -0.050568283
0.31900001 -0.27539 -0.059742585
0.32427847 -0.27476701 -0.057850879
0.33546007 -0.27407199 -0.055176303
0.34133336 -0.27532235 -0.053014163
0.35666668 -0.27335018 -0.052387714
0.36519048 -0.27438885 -0.051489756
0.37390006 -0.27369618 -0.050407745
0.31885716 -0.26814011 -0.059715837
0.32446384 -0.26506501 -0.058535796
0.33453706 -0.26483074 -0.055368893
0.34520546 -0.26420704 -0.054844204
0.35345775 -0.26418421 -0.052997988
0.36445946 -0.26506853 -0.051939894
0.37464866 -0.26516426 -0.050794642
0.38260001 -0.26198423 -0.0502325
0.32564917 -0.25549936 -0.059259996
0.33463836 -0.2558648 -0.05791001
0.3453967 -0.25494072 -0.05659432
0.35381538 -0.25509685 -0.054257605
0.36454347 -0.25470015 -0.052436776
0.37466675 -0.25474003 -0.051035795
0.38112497 -0.25830674 -0.050419431
0.32585406 -0.24483971 -0.059119944
0.33457145 -0.2446222 -0.057953775
0.34436956 -0.24541441 -0.057426013
0.35480016 -0.24452607 -0.056342859
0.36410165 -0.24486746 -0.052777153
0.37405723 -0.24410902 -0.050666865
0.32495558 -0.23514728 -0.058950439
0.33090913 -0.23475742 -0.058080923
0.34481817 -0.23625712 -0.058454107
0.35564286 -0.23524889 -0.056553941
0.36374471 -0.23540373 -0.053223565
0.37512255 -0.23586453 -0.051950481
0.38084215 -0.2331758 -0.050812215
0.31900001 -0.22061154 -0.059742589
0.32292601 -0.22484159 -0.058444329
0.33660001 -0.22319965 -0.058604617
0.34572914 -0.22436233 -0.058404971
0.35379714 -0.22427708 -0.055995528
0.36482367 -0.22550917 -0.053755514
0.37480009 -0.22560531 -0.052326139
0.38083336 -0.22754109 -0.050718442
0.3170909 -0.21401469 -0.05915596
0.32183334 -0.21734932 -0.057704229
0.333 -0.21578801 -0.058447912
0.34714288 -0.21419784 -0.058237184
0.35260004 -0.2158072 -0.056261472
0.36266667 -0.21722318 -0.053698245
0.31635553 -0.20467445 -0.059162173
0.32100004 -0.20274214 -0.058150612
0.33200002 -0.20031562 -0.057491425
0.34559998 -0.20692846 -0.056994893
0.35083333 -0.20892709 -0.055249095
0.31900001 -0.1997257 -0.059492458
0.32407355 -0.19695154 -0.058532756
0.30800003 -0.18076339 -0.059856042
0.2959303 -0.17163807 -0.054492686
0.30250001 -0.1761182 -0.059851605
0.289 -0.16009492 -0.050045244
0.2931284 -0.16530146 -0.054872122
0.28680152 -0.15455291 -0.054728393
0.2902222 -0.15944451 -0.056516673
0.27879408 -0.14097802 -0.054355413
0.28189698 -0.14610568 -0.055183213
0.27563909 -0.13485296 -0.054955833
0.2684516 -0.12179355 -0.054036699
0.27123898 -0.12652899 -0.055474695
0.26474065 -0.11474008 -0.055046134
0.25780812 -0.10247558 -0.054438811
0.2612609 -0.10746231 -0.055448271
0.25370696 -0.09487389 -0.055025708
0.24760009 -0.083714157 -0.054739174
0.25031039 -0.088441566 -0.056047346
0.24201249 -0.074661277 -0.054881766
0.23622599 -0.064197265 -0.054398969
0.24010515 -0.068651415 -0.057304271
0.22900003 -0.050737482 -0.051506203
0.2312808 -0.054939166 -0.055083625
0.22895721 -0.047616046 -0.052120078
0.23180991 -0.044457737 -0.055137776
0.23856753 -0.038513482 -0.052184943
0.24200001 -0.036304858 -0.051120657
0.27528006 -0.02132678 -0.057460207
0.27718747 -0.018516293 -0.058044251
0.28646249 -0.015662704 -0.053042579
0.29163933 -0.011864495 -0.056198843
0.29426789 -0.0083868159 -0.054567475
0.30759999 -0.0038305107 -0.054713763
0.31079996 -0.0017063383 -0.057768408
0.31664446 0.003980496 -0.058768515
0.32315385 0.006584845 -0.057797536
0.33500001 0.0075524799 -0.057341598
0.34502274 0.0064008059 -0.055751707
0.35452381 0.0080861021 -0.053559814
0.36140001 0.0094401138 -0.052209277
0.31850001 0.010117305 -0.05927375
0.32510421 0.015527479 -0.058903981
0.33449998 0.015520872 -0.057277557
0.34370285 0.01393743 -0.056190498
0.35506454 0.014858793 -0.05501391
0.36428073 0.015229038 -0.053165641
0.37116668 0.017274324 -0.050982151
0.31900001 0.026641754 -0.059742589
0.32457578 0.025019493 -0.058764484
0.33389658 0.024815923 -0.056891985
0.34444442 0.024987135 -0.056942005
0.35466668 0.024712093 -0.05609725
0.36388239 0.025270836 -0.054747183
0.37450007 0.024402512 -0.052107003
0.38154545 0.028193146 -0.050810929
0.32606667 0.034683689 -0.058822144
0.33209679 0.037416704 -0.056795273
0.36558741 0.035183582 -0.055767186
0.37442425 0.035668645 -0.052072443
0.38200003 0.033249088 -0.05094067
0.32592866 0.044851143 -0.059338212
0.33296826 0.045095999 -0.057339754
0.34485716 0.044210281 -0.055832334
0.35524994 0.045706812 -0.055451881
0.36455405 0.044615366 -0.053349849
0.37175 0.044157892 -0.050599042
0.39000002 0.048625994 -0.050104424
0.32629785 0.054817062 -0.059127752
0.33266672 0.054996718 -0.057324167
0.34507692 0.056358915 -0.056252584
0.35640547 0.055120088 -0.056025214
0.36411601 0.054985017 -0.053259678
0.37337038 0.055096671 -0.050859313
0.38420001 0.057392787 -0.050263047
0.39175004 0.056894116 -0.050095785
0.32487187 0.064592563 -0.059271049
0.33481821 0.063384466 -0.057588749
0.3441613 0.065335415 -0.056142557
0.3551482 0.064147703 -0.055524252
0.36467928 0.064716153 -0.0538668
0.37331247 0.065398082 -0.051245559
0.38325003 0.062657803 -0.050138764
0.39000002 0.060093541 -0.050104424
0.32705882 0.075832039 -0.059166931
0.3338064 0.076984413 -0.057442743
0.34426832 0.074847057 -0.056745246
0.35369772 0.075470015 -0.055146594
0.36502638 0.074702479 -0.053961672
0.37426004 0.07475207 -0.051719137
0.38000003 0.078665003 -0.050607461
0.32802951 0.084384285 -0.059275914
0.33275867 0.085197516 -0.057237227
0.34385714 0.084209353 -0.056073111
0.35479644 0.085238121 -0.054799192
0.36461541 0.084447034 -0.053302832
0.37493551 0.084083289 -0.052346084
0.38248155 0.084963277 -0.050901528
0.39000002 0.087615661 -0.050104424
0.32622457 0.095852055 -0.059194263
0.33408764 0.094473921 -0.057332885
0.34344003 0.096996471 -0.055814125
0.35500002 0.093775518 -0.055568852
0.36542857 0.094826072 -0.054556958
0.37364703 0.095613532 -0.053683672
0.38426667 0.095691986 -0.052495174
0.39346436 0.096055754 -0.050874941
0.32538462 0.10538851 -0.059283849
0.33444118 0.10564181 -0.058091689
0.34500006 0.10548349 -0.05633194
0.35465515 0.10549802 -0.054995395
0.36532506 0.10541399 -0.054492302
0.37419409 0.10519254 -0.05241501
0.38419232 0.10263874 -0.051405266
0.39085716 0.10146611 -0.050477002
0.32533842 0.11502281 -0.058651444
0.33439279 0.11551212 -0.056760203
0.3450149 0.11583953 -0.055097826
0.35400003 0.11557365 -0.052942436
0.36459091 0.11395823 -0.051806688
0.37188232 0.11189238 -0.050860967
0.28698176 0.12965359 -0.054302543
0.29434592 0.12884824 -0.055374525
0.30461979 0.12772366 -0.055197831
0.31447226 0.12606482 -0.055240985
0.32413155 0.12362241 -0.05578677
0.33426386 0.12265195 -0.053355988
0.34290323 0.12092101 -0.051879246
0.35100001 0.12013727 -0.050460801
0.20715158 0.1398744 -0.054059278
0.21422376 0.1394313 -0.055634584
0.22510716 0.13819571 -0.054909557
0.23286052 0.13638394 -0.05586803
0.24458048 0.13585418 -0.054574721
0.25389129 0.13386738 -0.055066206
0.26390344 0.13296477 -0.055445865
0.27436739 0.13203308 -0.054896332
0.28259465 0.13052002 -0.055682298
0.19745292 0.14195371 -0.053847831
0.20364864 0.14081077 -0.055091135
0.21258338 0.14019939 -0.057352994
0.22100002 0.1401049 -0.052306175
0.38900003 -0.38065791 -0.044485644
0.39228576 -0.38156348 -0.041560087
0.37866667 -0.37099156 -0.049539145
0.38439992 -0.37348476 -0.046944685
0.39193472 -0.37404877 -0.041871294
0.37900001 -0.36819774 -0.049582753
0.38621676 -0.36569148 -0.047903597
0.39227903 -0.36438122 -0.042805485
0.38671741 -0.35459158 -0.047699954
0.39540002 -0.35707766 -0.043651294
0.40000001 -0.35566679 -0.042920809
0.37900001 -0.34056038 -0.049582753
0.38367391 -0.34476808 -0.048264608
0.39225814 -0.34387383 -0.045744315
0.37833333 -0.33640149 -0.049495537
0.38475993 -0.33489501 -0.04866419
0.39507493 -0.33480939 -0.043785624
0.38438463 -0.32436273 -0.048331104
0.3958514 -0.32536376 -0.044187892
0.38444898 -0.31517494 -0.048996311
0.39447275 -0.31448403 -0.045569319
0.40000001 -0.3100318 -0.042920809
0.3872 -0.30553609 -0.048959777
0.39465386 -0.30520585 -0.046517007
0.40000001 -0.30589172 -0.044426296
0.38706666 -0.29593605 -0.048996467
0.39452785 -0.2950846 -0.046810739
0.40000004 -0.29605231 -0.044802666
0.37900001 -0.28082797 -0.049582753
0.38496438 -0.28358671 -0.0480255
0.39326313 -0.28565517 -0.045989003
0.40000001 -0.28368583 -0.044802666
0.37691665 -0.2760286 -0.049677756
0.38370681 -0.27429268 -0.048151784
0.39368892 -0.27430055 -0.04503347
0.38604251 -0.26596302 -0.048991095
0.39358321 -0.2652176 -0.044632845
0.37900001 -0.250516 -0.049582753
0.3857291 -0.25414404 -0.047257382
0.39158335 -0.25798854 -0.044778135
0.37846673 -0.24496916 -0.049215812
0.38495827 -0.24454845 -0.046064913
0.39057145 -0.24444257 -0.043485831
0.38521165 -0.23638122 -0.048523109
0.3911579 -0.23683162 -0.046232086
0.38240004 -0.2282052 -0.049846902
0.29368576 -0.17129619 -0.044721264
0.28841174 -0.16136579 -0.043979414
0.29176369 -0.16648537 -0.045241226
0.28494641 -0.15479183 -0.044875316
0.27829865 -0.14219767 -0.044743091
0.28096557 -0.14714624 -0.045289297
0.27471772 -0.13500124 -0.045008592
0.26781404 -0.12337541 -0.044667866
0.27062723 -0.12793992 -0.046033267
0.26310328 -0.11492207 -0.044962481
0.25714457 -0.10402421 -0.044699416
0.26008347 -0.10872798 -0.046618856
0.24900006 -0.090758793 -0.041467879
0.25223994 -0.095199004 -0.045184288
0.24661112 -0.085041881 -0.045030419
0.25 -0.089679815 -0.049466565
0.23897676 -0.071096681 -0.043684091
0.24120632 -0.075664952 -0.045098159
0.23565499 -0.064882994 -0.045097426
0.22874229 -0.051473632 -0.044508677
0.23123726 -0.056385241 -0.04519574
0.22823526 -0.047056288 -0.045199513
0.23374248 -0.042345237 -0.044162229
0.23837222 -0.038757689 -0.044756755
0.24361008 -0.035460062 -0.044402853
0.25374001 -0.031379353 -0.043613583
0.25812492 -0.02887512 -0.042292066
0.26128578 -0.026610393 -0.043906838
0.27442861 -0.02115215 -0.042027269
0.2781333 -0.018422913 -0.041556463
0.28361693 -0.01552831 -0.046067696
0.29143754 -0.011115185 -0.045447633
0.29395351 -0.0083067259 -0.044933196
0.30380002 -0.003927696 -0.04582591
0.37468421 0.016965078 -0.049247928
0.38100001 0.019272512 -0.048051938
0.3775 0.021539526 -0.049607046
0.38387501 0.02517524 -0.049313415
0.39514285 0.026486363 -0.048770044
0.40000001 0.024938244 -0.048566375
0.38391671 0.036720172 -0.049545567
0.39000002 0.038993251 -0.049187023
0.37650001 0.040741488 -0.049696751
0.38550001 0.040810965 -0.049526297
0.38900003 0.056736775 -0.049975954
0.3954286 0.057872672 -0.049737595
0.40000001 0.058811616 -0.049507301
0.38536367 0.064884216 -0.049834896
0.39489484 0.064753473 -0.049312465
0.40000001 0.065868571 -0.048566375
0.38515383 0.076057144 -0.049758315
0.39271432 0.077398725 -0.049263205
0.40000001 0.077630162 -0.049507301
0.38666666 0.082168452 -0.049523678
0.39490002 0.084769517 -0.049056977
0.40000001 0.084843934 -0.048566375
0.39684615 0.097048603 -0.049330473
0.40000001 0.094943225 -0.049319118
0.37850001 0.10951622 -0.049517341
0.38499996 0.10741934 -0.049058776
0.39451027 0.10496652 -0.047779422
0.40000001 0.10397612 -0.046684518
0.3416667 0.11988863 -0.04148221
0.35900003 0.11949752 -0.049499698
0.36582088 0.11860008 -0.045909192
0.37407151 0.1156596 -0.045627676
0.38396609 0.11393038 -0.044838063
0.39417779 0.1128599 -0.043857176
0.40000001 0.11225629 -0.042544443
0.27700001 0.12999515 -0.040148135
0.28758618 0.12935914 -0.045366179
0.29384008 0.12865996 -0.044370119
0.30530939 0.12810354 -0.04522961
0.31397873 0.12561056 -0.045401014
0.32489994 0.12454712 -0.04444446
0.33431247 0.12214329 -0.04496181
0.34393939 0.12104445 -0.04700055
0.35593027 0.12113607 -0.045351293
0.36188462 0.12058626 -0.043967247
0.20798501 0.13962682 -0.04669689
0.21408367 0.13878757 -0.044784073
0.22413501 0.13752858 -0.045513
0.23423316 0.13630264 -0.043293752
0.24506894 0.13521579 -0.04477644
0.25455755 0.13408504 -0.045147028
0.2642689 0.1326877 -0.044775713
0.27462614 0.13161606 -0.044629559
0.28323662 0.13078277 -0.04539967
0.19709229 0.14152208 -0.045365579
0.20452687 0.14075638 -0.044979002
0.21023531 0.14014542 -0.042894326
0.40000001 -0.39189246 -0.036334321
0.39609766 -0.38409233 -0.037178949
0.40000001 -0.38514915 -0.034609288
0.39541793 -0.37504047 -0.037258428
0.40000001 -0.37119207 -0.034452468
0.39450899 -0.36467656 -0.037891816
0.39790913 -0.35878393 -0.03895285
0.39665386 -0.33309868 -0.038579471
0.39641663 -0.32749572 -0.038186293
0.29176921 -0.17092109 -0.034557614
0.28781074 -0.1628425 -0.034233868
0.2907185 -0.16772309 -0.035752844
0.28354368 -0.15496513 -0.03499851
0.27736157 -0.14392182 -0.034699883
0.28020594 -0.14867105 -0.03644608
0.26900002 -0.13024341 -0.031395342
0.27287483 -0.13526537 -0.035057373
0.26641843 -0.12449902 -0.034752049
0.27000001 -0.12943617 -0.037990335
0.25877267 -0.11124093 -0.033343606
0.26179728 -0.115973 -0.035367072
0.25572649 -0.10490192 -0.035160307
0.24824038 -0.091918424 -0.034192715
0.25137505 -0.096726246 -0.035305869
0.24454731 -0.085026219 -0.034949429
0.23773851 -0.073635064 -0.034442574
0.24049264 -0.077867493 -0.036326461
0.23374565 -0.065018386 -0.034892567
0.22733365 -0.053855184 -0.034472875
0.23027101 -0.058558483 -0.036067992
0.22659364 -0.046832595 -0.034784939
0.23295 -0.041937344 -0.035357863
0.23782699 -0.039274938 -0.035474453
0.24400508 -0.035811916 -0.035172135
0.25226194 -0.031414323 -0.035376467
0.25727999 -0.028424501 -0.037593476
0.26568982 -0.024715994 -0.034452129
0.2712326 -0.02077621 -0.034910645
0.27605438 -0.017712245 -0.035672225
0.28501871 -0.013279762 -0.0336794
0.29075 -0.010683614 -0.036845095
0.29293075 -0.0077221547 -0.035093904
0.34392002 0.11971092 -0.032557454
0.35512504 0.11924076 -0.032012641
0.36501613 0.11824981 -0.034725223
0.37372729 0.11603712 -0.035155911
0.3843658 0.11474637 -0.035071164
0.39507321 0.11413398 -0.0358686
0.40000001 0.11338539 -0.035393395
0.27791664 0.12982453 -0.036958344
0.28460801 0.12885204 -0.034994282
0.29435423 0.12853891 -0.033930063
0.30439031 0.12728453 -0.034900215
0.3143647 0.12494129 -0.034781188
0.32446152 0.12383932 -0.035358924
0.33444548 0.12170794 -0.035111494
0.34345457 0.12029951 -0.036889296
0.35514817 0.12080608 -0.037114218
0.3616364 0.12052775 -0.038342409
0.19837035 0.13953167 -0.037030045
0.20632221 0.13949117 -0.033531312
0.21588208 0.13923159 -0.035137862
0.22441746 0.13731176 -0.034850765
0.2352311 0.13620067 -0.034908902
0.24394226 0.13492976 -0.034970205
0.25370872 0.13378696 -0.035069142
0.26440126 0.13227148 -0.034547254
0.27400002 0.13106973 -0.034811288
0.28 0.13008575 -0.033191446
0.19636677 0.14111033 -0.033771578
0.20322336 0.14059305 -0.032889079
0.21600001 0.14015816 -0.03656609
0.29057503 -0.17103252 -0.024774393
0.28729722 -0.1643395 -0.024527246
0.28999999 -0.16876438 -0.02681285
0.27900001 -0.15074876 -0.023111783
0.28255156 -0.15587787 -0.025144406
0.2759445 -0.14512938 -0.025211558
0.26873228 -0.13189796 -0.023602158
0.27119362 -0.13633917 -0.025584474
0.26584437 -0.12489457 -0.024988201
0.2583679 -0.11227152 -0.024658535
0.26133329 -0.11720619 -0.02524255
0.2545417 -0.10510467 -0.024907503
0.24785399 -0.093102202 -0.02500857
0.2506932 -0.098065995 -0.025064312
0.24364221 -0.085152842 -0.025032979
0.23711298 -0.074277975 -0.024874225
0.24007307 -0.079149395 -0.02450747
0.22900002 -0.060060807 -0.024033485
0.23226757 -0.064944454 -0.024745625
0.22662695 -0.054287728 -0.025314843
0.2310645 -0.058497176 -0.022731088
0.22603717 -0.046299238 -0.025185363
0.23331819 -0.041241966 -0.025536478
0.23720008 -0.038482584 -0.025931505
0.24445069 -0.034894317 -0.027800908
0.2527073 -0.031383488 -0.024510155
0.25603607 -0.028528351 -0.024761938
0.26506913 -0.023819976 -0.02544212
0.27061108 -0.02033167 -0.02472127
0.27599999 -0.017876195 -0.023368509
0.28496036 -0.013860367 -0.025337348
0.28999999 -0.010613639 -0.025105948
0.29371423 -0.0073060249 -0.024752757
0.34650001 0.11966197 -0.024718754
0.35516903 0.11865848 -0.025094816
0.36457816 0.11689615 -0.024753883
0.37441099 0.11480636 -0.025272153
0.38291666 0.11315274 -0.022730641
0.39271429 0.11277153 -0.023279164
0.28444257 0.12891568 -0.024730098
0.29489729 0.1280707 -0.025168937
0.30400893 0.1264323 -0.025197694
0.31462511 0.12454497 -0.024858406
0.32433733 0.12239586 -0.025479168
0.33468351 0.12127627 -0.02422332
0.34284851 0.12029849 -0.025618821
0.19750001 0.13983653 -0.020844596
0.20723151 0.13960376 -0.02459278
0.21422584 0.13848051 -0.024700662
0.22351146 0.1371703 -0.025233187
0.23616552 0.13652931 -0.023379996
0.24385381 0.13513248 -0.02444593
0.25493199 0.13391322 -0.025078192
0.26438844 0.1318415 -0.025133533
0.27446878 0.13069548 -0.025141099
0.28052181 0.13024077 -0.024420932
0.19645944 0.14103301 -0.024070336
0.20433813 0.14069168 -0.025973201
0.21000001 0.14004718 -0.020804472
0.289 -0.17029221 -0.016734069
0.28999999 -0.17122257 -0.018497404
0.28623083 -0.16487435 -0.017351348
0.27876663 -0.15114784 -0.016271688
0.28086221 -0.15546684 -0.015356964
0.27588233 -0.14509486 -0.015400921
0.30333337 -0.14513209 -0.010428655
0.26817799 -0.13239421 -0.016418716
0.27129734 -0.13760549 -0.015429413
0.29730001 -0.13484165 -0.010291562
0.30000001 -0.13937208 -0.010314054
0.2657747 -0.12532148 -0.016530501
0.27225003 -0.12071405 -0.013520666
0.2844412 -0.12295329 -0.011818873
0.29100004 -0.12711354 -0.0102775
0.25713333 -0.11183802 -0.018841404
0.26402566 -0.11775249 -0.016979894
0.27810341 -0.11404377 -0.01390208
0.28078178 -0.11524662 -0.011525473
0.25326672 -0.10442683 -0.017903406
0.2786153 -0.10627544 -0.014166319
0.28019115 -0.10509322 -0.011861166
0.24833335 -0.092880942 -0.019246671
0.25120547 -0.097043753 -0.017748719
0.26535293 -0.091606289 -0.014809887
0.27570832 -0.095794268 -0.012607191
0.28150001 -0.097943224 -0.011249073
0.29329032 -0.094992384 -0.010615455
0.24357148 -0.08390186 -0.018830502
0.26655382 -0.087198153 -0.01445486
0.27303448 -0.083542332 -0.012750058
0.28334624 -0.084429458 -0.011430545
0.29390326 -0.085277811 -0.010482181
0.23760001 -0.072714075 -0.019793415
0.24245995 -0.077437043 -0.018493982
0.28595832 -0.071778409 -0.011846648
0.29273683 -0.076705411 -0.010749736
0.23558623 -0.063263863 -0.018882845
0.25797033 -0.064083487 -0.015704175
0.26000002 -0.066738747 -0.013525866
0.28624588 -0.06533286 -0.012091927
0.29350004 -0.064434141 -0.010549676
0.22800002 -0.052826259 -0.019637909
0.2364375 -0.058749542 -0.018969864
0.25431219 -0.054866619 -0.015909864
0.28445828 -0.054338589 -0.012288608
0.29146665 -0.056975789 -0.01029433
0.2286364 -0.047692109 -0.019545808
0.23033333 -0.048489738 -0.018755244
0.25487038 -0.04580044 -0.016696688
0.2836912 -0.046008956 -0.01231555
0.29264003 -0.041777577 -0.011103563
0.25720778 -0.035031546 -0.016765399
0.29732504 -0.035168268 -0.010885617
0.25594738 -0.028880581 -0.018367881
0.27280003 -0.020467835 -0.018875221
0.29446998 -0.02403548 -0.012103815
0.27660605 -0.017865093 -0.018675966
0.28723684 -0.014339133 -0.015211559
0.29082 -0.015033137 -0.011418398
0.289 -0.0094839223 -0.0143238
0.29255283 -0.0071735419 -0.014889982
0.34738097 0.11967171 -0.016251456
0.35456762 0.11858359 -0.015143465
0.36501428 0.11663095 -0.014840717
0.37437034 0.1149169 -0.015219145
0.38497296 0.11411195 -0.016146595
0.39466658 0.11335424 -0.014513214
0.40000001 0.11225627 -0.014692998
0.27762496 0.12946914 -0.012240922
0.28320435 0.12765034 -0.015035322
0.29454768 0.12714858 -0.012037577
0.30569151 0.12671873 -0.014742577
0.31403393 0.12425858 -0.015342976
0.32456785 0.12286089 -0.01419392
0.33435526 0.12158851 -0.015550373
0.3440702 0.12073878 -0.014352034
0.19792859 0.13983095 -0.016490713
0.20468272 0.13935016 -0.014467968
0.21480072 0.13815112 -0.014872503
0.22544098 0.13683033 -0.014856764
0.23451754 0.13567562 -0.014964756
0.24464093 0.13441026 -0.01475064
0.25433975 0.13287379 -0.015168503
0.26480615 0.13180265 -0.015131394
0.27390483 0.13091575 -0.01468434
0.28066668 0.13048235 -0.01805781
0.19584803 0.14112575 -0.014878452
0.20264708 0.14036953 -0.013182741
0.21300001 0.14004368 -0.017844897
0.30802941 -0.15154092 -0.0065169297
0.30688047 -0.14583513 -0.006848345
0.31073684 -0.1469754 -0.0037957253
0.29802221 -0.13300332 -0.007891492
0.30117399 -0.13760899 -0.0070861243
0.28800002 -0.12092609 -0.0096756686
0.29485187 -0.12667908 -0.0084111551
0.28210005 -0.11378349 -0.0093997857
0.30879414 -0.11316314 -0.0076244571
0.31052941 -0.11165024 -0.0059050024
0.28100008 -0.10557401 -0.0095139407
0.29733336 -0.10106304 -0.0095229512
0.30597621 -0.10475091 -0.0076872706
0.31074998 -0.10811821 -0.0057474966
0.29762855 -0.094304755 -0.008890829
0.30350003 -0.094535403 -0.0071278485
0.31325001 -0.092186369 -0.005195186
0.29795003 -0.086056992 -0.0094021522
0.3034285 -0.085844383 -0.0078160074
0.31525001 -0.084163092 -0.0064582168
0.32578573 -0.08450903 -0.0039516944
0.33000001 -0.084609844 -0.0020302804
0.289 -0.071038522 -0.0099358717
0.29625002 -0.076861322 -0.0096587967
0.30585721 -0.074737765 -0.0089913225
0.31425402 -0.074834801 -0.0063577779
0.32360721 -0.077208117 -0.0035885933
0.29450002 -0.065729879 -0.0097732916
0.30500001 -0.066337243 -0.0084184175
0.31402704 -0.067305282 -0.0049778782
0.289 -0.050643921 -0.0099358717
0.29403573 -0.054315131 -0.0083269952
0.30100003 -0.059119217 -0.0068081957
0.28842857 -0.047830556 -0.0099162254
0.29437041 -0.044957265 -0.0081078494
0.2984364 -0.036198448 -0.0082813129
0.30015391 -0.032854963 -0.0070602968
0.29726312 -0.024486348 -0.0083423173
0.30026668 -0.02827367 -0.0070263711
0.29394829 -0.015288278 -0.0083153537
0.29763156 -0.0075294492 -0.0089048063
0.40000001 0.10962168 -0.00057909166
0.33800003 0.11966316 -0.00048933248
0.34555548 0.11924349 -0.0044979039
0.35469237 0.11811724 -0.0050574532
0.36430562 0.11614606 -0.0051452112
0.37385005 0.11458276 -0.0043392861
0.38444996 0.11376146 -0.0039712037
0.39456901 0.11233259 -0.0052758227
0.40000001 0.1111899 -0.0049700849
0.26900002 0.12940465 -0.00070582592
0.27513999 0.12938659 -0.0046173031
0.28432596 0.12830412 -0.0047225384
0.29526842 0.12680516 -0.0049307034
0.30420226 0.12510683 -0.0055296025
0.31507063 0.1244536 -0.0051135602
0.32436666 0.12269093 -0.0051742573
0.33424637 0.12110225 -0.0046785241
0.34182614 0.12056033 -0.0070697023
0.19804002 0.13983646 -0.0021537901
0.20434512 0.13927341 -0.0042371061
0.21431622 0.13829464 -0.0049443869
0.22373369 0.13669023 -0.0053547006
0.235425 0.13519205 -0.0053735906
0.24667452 0.13417612 -0.0061237533
0.25438252 0.13273597 -0.0044912426
0.26470414 0.131514 -0.0043749036
0.27171704 0.13093594 -0.00735468
0.19601928 0.14077725 -0.004750472
0.20347224 0.14056504 -0.0085164458
0.39595658 0.10944138 0.0035172384
0.40000001 0.10962168 0.007418789
0.33712503 0.11913303 0.005002243
0.34332258 0.11890904 0.0053882333
0.35600004 0.11915325 0.0045590024
0.36434954 0.11620151 0.005272856
0.37450007 0.11412588 0.0050656884
0.38523081 0.1139555 0.0047851279
0.39243329 0.11194166 0.0052364818
0.40000001 0.11056262 0.0097711068
0.27573866 0.12953246 0.005017499
0.28411037 0.12806945 0.0047593392
0.2948156 0.12586533 0.0045612031
0.30346942 0.12475024 0.0060611684
0.31574443 0.12474518 0.0047091525
0.3246122 0.1227631 0.0050403299
0.33278123 0.12091595 0.004922526
0.35800001 0.12000678 0.006218751
0.19741668 0.13980743 0.0022476404
0.20556885 0.13897468 0.0048792968
0.21475458 0.13730849 0.0052654035
0.22511849 0.13627042 0.0052859611
0.23418327 0.13522007 0.0046580876
0.24455339 0.13391468 0.0058347075
0.25492924 0.1327669 0.0042603565
0.26525614 0.13114938 0.00428613
0.27168086 0.13040592 0.0064190417
0.19760607 0.14049241 0.0049215965
0.20192404 0.14034733 0.0042618453
0.33503771 0.11936466 0.015384803
0.34449998 0.11879751 0.014730506
0.35533342 0.11816923 0.014845731
0.36438033 0.11591506 0.014488249
0.37426561 0.11371482 0.015277355
0.38412121 0.11268318 0.015410289
0.39469445 0.11223498 0.014411415
0.40000001 0.111974 0.014946206
0.26046154 0.12991528 0.016023826
0.2763263 0.12910271 0.015055053
0.28286299 0.12670992 0.01494182
0.29616129 0.12718083 0.014662268
0.30470309 0.12629294 0.015186273
0.31464362 0.12411551 0.015112196
0.32447112 0.12224139 0.015014885
0.33151433 0.12075067 0.013488993
0.19575001 0.13951291 0.016156133
0.20451844 0.13866194 0.01543984
0.21442905 0.13740292 0.014961099
0.22430135 0.13578378 0.014881743
0.23396301 0.13461234 0.013343454
0.2440967 0.1334023 0.015236712
0.25498095 0.13175736 0.015097929
0.26427448 0.13074733 0.014375815
0.27164623 0.13055655 0.015386008
0.19746667 0.14074697 0.017850336
0.20063417 0.1404869 0.015645916
0.32850003 0.11977658 0.021547407
0.3335833 0.11920193 0.024225157
0.34388006 0.11918 0.027780216
0.35493335 0.11919257 0.02646967
0.36383504 0.11715572 0.025184633
0.37369236 0.11459219 0.024812777
0.38447827 0.11377411 0.025553191
0.3943114 0.11197515 0.025336025
0.40000001 0.11056262 0.025296405
0.27501562 0.12914345 0.025656845
0.28467968 0.12732676 0.024672836
0.29448208 0.12634994 0.026364263
0.30456555 0.12582305 0.025009368
0.31496197 0.12398034 0.024983309
0.32378429 0.12158328 0.024753395
0.33360001 0.12044937 0.028271113
0.35707694 0.12040378 0.023902824
0.19681592 0.13922802 0.024950748
0.2047959 0.13832419 0.025537005
0.21443391 0.13702917 0.024766309
0.22413367 0.1356536 0.024667552
0.234598 0.13482282 0.027306754
0.24446671 0.13328186 0.024787791
0.25392398 0.13180406 0.024881836
0.26452407 0.13078158 0.025411833
0.27183869 0.13058117 0.022005904
0.19421279 0.14050579 0.023731893
0.34407574 0.11924145 0.035012674
0.35522392 0.11817814 0.034994394
0.36359265 0.11557636 0.034833465
0.3743726 0.11395203 0.034923904
0.38476118 0.11240513 0.034750305
0.39422235 0.11042075 0.034996368
0.26706669 0.12968452 0.035760492
0.27473998 0.12890664 0.034624849
0.28387183 0.12711814 0.035242196
0.29433343 0.12605749 0.03508937
0.30410007 0.12527043 0.034691934
0.31512409 0.12353554 0.035024222
0.32413694 0.12137692 0.035166875
0.33493337 0.12061355 0.035218306
0.19662425 0.13880232 0.035321102
0.20615244 0.13816182 0.034631528
0.21483804 0.13697563 0.035142493
0.22437666 0.13557892 0.035242248
0.23434204 0.13419971 0.035097711
0.24435765 0.13297516 0.034921031
0.25356251 0.13168824 0.035078913
0.26359633 0.13097998 0.034957256
0.19575001 0.14032844 0.032751381
0.33825004 0.11955232 0.047449075
0.34431255 0.11875743 0.045117907
0.35487503 0.11734431 0.045100916
0.36455229 0.11583167 0.04473006
0.37453333 0.11383543 0.045166519
0.38423401 0.11223536 0.045075245
0.39392868 0.11114971 0.044947047
0.40000004 0.11056262 0.045526333
0.2650927 0.12958574 0.04633056
0.27446717 0.12875456 0.045193098
0.28445593 0.12744151 0.044894468
0.29437268 0.12621954 0.045176726
0.30439997 0.12467428 0.045776941
0.31359598 0.12290304 0.044657461
0.32480282 0.12226334 0.044874482
0.33392853 0.12095015 0.044955675
0.34 0.12037122 0.041496642
0.19630063 0.13910843 0.043655273
0.20376454 0.13753659 0.045340735
0.21426901 0.1365618 0.044322778
0.2244712 0.13528746 0.044979021
0.23365724 0.13340524 0.044681277
0.24542867 0.13263904 0.044662874
0.25433332 0.13125692 0.045594841
0.2629863 0.13076675 0.042478468
0.19168749 0.14037479 0.042051565
0.38700002 0.10970037 0.059522633
0.32800001 0.11998063 0.058163725
0.33463997 0.11969005 0.057693902
0.34459767 0.11862262 0.054953333
0.35384512 0.11638685 0.05521974
0.36440006 0.11547969 0.054712992
0.37502173 0.11515634 0.054857027
0.38370129 0.11270562 0.055330072
0.39431819 0.11143029 0.052844927
0.40000001 0.11103308 0.052112829
0.26458266 0.12960742 0.055069435
0.27412507 0.12844846 0.055149317
0.2839013 0.12663853 0.054936886
0.29473472 0.12569125 0.054809518
0.30349571 0.12393507 0.054904301
0.31452942 0.1229196 0.054977778
0.32479605 0.12181979 0.055339761
0.33431253 0.12036175 0.053319156
0.19685143 0.13884622 0.053743374
0.20459746 0.1370905 0.054513998
0.21540213 0.13640399 0.054741815
0.22435535 0.13513216 0.055086691
0.23342991 0.1336344 0.055357005
0.24487634 0.13290967 0.055291831
0.2545279 0.13108887 0.0549546
0.2638 0.13012959 0.053356789
0.19599999 0.14059043 0.053066809
0.38700002 0.10970037 0.060432978
0.33543551 0.11946004 0.065037116
0.34442115 0.11818314 0.06502784
0.35438988 0.11693592 0.064883888
0.36346272 0.11531901 0.065305032
0.37389362 0.11417411 0.065249771
0.38442862 0.11337625 0.064271152
0.39457145 0.11334468 0.066653416
0.40000001 0.11401268 0.068735875
0.25627112 0.12970167 0.066641971
0.26453283 0.1289997 0.064651273
0.27490145 0.12794371 0.064964466
0.2841191 0.126386 0.064918824
0.29361773 0.12513141 0.065219536
0.30522215 0.12459894 0.06525632
0.31304955 0.12216142 0.064794324
0.32507458 0.12174232 0.065047964
0.33089191 0.12074191 0.065280497
0.19638407 0.13871959 0.062713921
0.20444351 0.13763024 0.065208942
0.21453324 0.13641115 0.064759023
0.22437519 0.13474908 0.064934343
0.23474488 0.13298261 0.064842522
0.24458066 0.13187963 0.065057427
0.2530084 0.1306472 0.064080685
0.192 0.14032787 0.062591016
0.39677781 0.10909775 0.077720255
0.40000001 0.10797506 0.0770474
0.32807145 0.11962031 0.077467576
0.33371264 0.11868323 0.074701071
0.34433332 0.11793177 0.075278036
0.35484812 0.11705671 0.075017206
0.36441985 0.11455916 0.075134628
0.37437502 0.11293826 0.074659504
0.38506517 0.11231364 0.075236306
0.39437142 0.11168083 0.074877299
0.40000001 0.111974 0.073283687
0.24900001 0.12974086 0.079298407
0.25387877 0.12962709 0.075126946
0.26586509 0.1290624 0.074853957
0.27424222 0.12733918 0.074908651
0.28395587 0.12570494 0.074849136
0.29427665 0.12498761 0.07507965
0.3046363 0.12323441 0.074818805
0.31453449 0.12166511 0.074977793
0.32477385 0.12136479 0.075007521
0.33000001 0.12071222 0.071326748
0.19360466 0.13852051 0.076849833
0.20444128 0.13703999 0.07424935
0.21505506 0.13582933 0.074603967
0.22440015 0.13464051 0.074839473
0.2337604 0.13301302 0.075081587
0.24543045 0.13174714 0.0759992
0.25404546 0.13043174 0.07477542
0.2621429 0.13032973 0.076743141
0.19212501 0.1402718 0.078131951
0.38800001 0.10998383 0.089795507
0.39666668 0.10963734 0.083693601
0.40000001 0.10962168 0.082222492
0.32580641 0.11909825 0.085024565
0.33422223 0.11854994 0.08453352
0.34472832 0.11732483 0.085547097
0.35444877 0.1151272 0.084655546
0.3642593 0.11376529 0.084424168
0.37419993 0.11317192 0.085522279
0.38515782 0.11231618 0.085082784
0.39366674 0.11081143 0.085275635
0.40000001 0.11056262 0.08739759
0.24900001 0.12974086 0.080469862
0.25585461 0.12952945 0.085274182
0.26430288 0.12837206 0.084658206
0.27396753 0.12681037 0.084633842
0.28427663 0.12538403 0.08515875
0.29528776 0.12453202 0.084789865
0.30411342 0.12350094 0.084768735
0.31450945 0.12222739 0.085529126
0.32172224 0.12076382 0.084147699
0.19595572 0.13775177 0.083767354
0.20506518 0.1365802 0.085382849
0.2155838 0.13580462 0.084921785
0.22347389 0.1340266 0.084450439
0.23484325 0.13285947 0.083954372
0.24432448 0.13152657 0.085030727
0.25203228 0.13039297 0.085941322
0.26366666 0.13014637 0.080454893
0.38744444 0.10908223 0.095605753
0.39353338 0.10849016 0.094559103
