# .PCD v0.7 - Point Cloud Data file format
VERSION 0.7
FIELDS x y z
SIZE 4 4 4
TYPE F F F
COUNT 1 1 1
WIDTH 1355
HEIGHT 1
VIEWPOINT 0 0 0 1 0 0 0
POINTS 1355
DATA ascii
0.23364453 -0.095032632 -0.073534653
0.24325183 -0.095204316 -0.071676783
0.1964433 -0.084761225 -0.079556629
0.20434418 -0.084841996 -0.078386627
0.21516219 -0.084562585 -0.076837003
0.22436288 -0.085077614 -0.075303517
0.23432125 -0.085173465 -0.073588073
0.24178439 -0.084993899 -0.071453258
0.18875003 -0.071444921 -0.079785727
0.19539583 -0.077148229 -0.079639316
0.20482902 -0.07597328 -0.078531325
0.21257566 -0.0746914 -0.076871105
0.22503814 -0.075076476 -0.075761713
0.23456164 -0.074724182 -0.073236749
0.24088231 -0.075721204 -0.070967771
0.18900003 -0.067639172 -0.079727866
0.19640994 -0.065183766 -0.079449937
0.20477709 -0.064795904 -0.078385055
0.2143351 -0.064679645 -0.076817475
0.22527695 -0.065239996 -0.075520709
0.23507418 -0.064914823 -0.072959468
0.24000001 -0.068283439 -0.070557728
0.19697954 -0.054541111 -0.079508595
0.20401014 -0.054677114 -0.078512892
0.21450932 -0.055396821 -0.076885164
0.22420135 -0.05477754 -0.075220786
0.23472086 -0.054975629 -0.072687052
0.19637509 -0.045272384 -0.079314291
0.20532219 -0.04561124 -0.0785335
0.21410011 -0.045011941 -0.077018082
0.22465464 -0.044800512 -0.075217523
0.23448318 -0.045555755 -0.073040605
0.24479075 -0.042820029 -0.072114304
0.25212499 -0.041875415 -0.070696071
0.19720681 -0.035045512 -0.079457328
0.20396242 -0.034867153 -0.078272745
0.2146243 -0.034767333 -0.076828957
0.22442324 -0.034749217 -0.075514108
0.23365811 -0.034956947 -0.073932111
0.24426977 -0.035266936 -0.072378725
0.25388485 -0.0349315 -0.070948102
0.26152006 -0.034307003 -0.070212536
0.19731705 -0.024706015 -0.07954485
0.20418485 -0.024864985 -0.078419857
0.21439879 -0.025026426 -0.076800562
0.22400679 -0.025048647 -0.075334109
0.23434889 -0.024728287 -0.073554188
0.24534246 -0.024377426 -0.072287247
0.25308612 -0.025338447 -0.071180649
0.26133335 -0.028482601 -0.070047729
0.19716248 -0.014564386 -0.079450868
0.20406856 -0.01526985 -0.078337327
0.21413819 -0.014989246 -0.076876685
0.22415082 -0.014908996 -0.075327128
0.23488261 -0.015200015 -0.073736139
0.24454285 -0.014770224 -0.07189662
0.25241676 -0.015353821 -0.070825912
0.19674186 -0.0049686017 -0.079691336
0.20371242 -0.0048092054 -0.078427754
0.21409728 -0.0056200786 -0.076700464
0.22393407 -0.0040238961 -0.07535658
0.23510294 -0.005512882 -0.074066579
0.24549657 -0.0046974346 -0.07197126
0.25084212 -0.0056064255 -0.070393167
0.26337931 -0.0067808535 -0.070214719
0.19534785 0.00496135 -0.079652473
0.20468366 0.0049720788 -0.078538753
0.21509266 0.0052111992 -0.077113912
0.22426127 0.0055449912 -0.075195499
0.23418665 0.0045592492 -0.073612176
0.24547972 0.0049154297 -0.071993656
0.25087094 0.004696128 -0.070263617
0.26200002 0.0058573266 -0.070022032
0.19686571 0.015073988 -0.079564415
0.20490582 0.015088441 -0.07839901
0.21466026 0.01499352 -0.076892465
0.22444871 0.014544963 -0.07520584
0.23418997 0.015588335 -0.073582195
0.24473974 0.014328553 -0.072189085
0.25117314 0.015812982 -0.070625782
0.19713338 0.022682155 -0.079803936
0.20416018 0.025087271 -0.078461401
0.21400593 0.024886159 -0.076682359
0.22399995 0.02490011 -0.075573541
0.23449071 0.024863688 -0.073812574
0.24415688 0.024850214 -0.07238777
0.25224751 0.025420569 -0.071167715
0.19822849 0.035320804 -0.079755522
0.20423788 0.03511361 -0.078379266
0.21442497 0.034801822 -0.076937363
0.22433113 0.035232648 -0.075501941
0.23415095 0.034899056 -0.073797084
0.2450985 0.035330027 -0.072197095
0.25255439 0.034767963 -0.070684493
0.26000002 0.039450761 -0.070099115
0.18900001 0.044238251 -0.079854883
0.19712491 0.045167603 -0.079675585
0.20434742 0.04491546 -0.078582942
0.21458487 0.044961948 -0.076960631
0.22444057 0.045150608 -0.075225897
0.23365732 0.044195935 -0.073832624
0.24439301 0.045115035 -0.071926363
0.25417912 0.044899654 -0.070287444
0.26080006 0.044631984 -0.070068285
0.19673066 0.055195708 -0.079352014
0.20439202 0.054979086 -0.078515194
0.21462117 0.055098057 -0.07724122
0.22375458 0.055152334 -0.075372979
0.23441908 0.054995146 -0.073898681
0.24423717 0.054571524 -0.071979739
0.25303575 0.055865046 -0.07050965
0.26000002 0.050459608 -0.070099115
0.19655225 0.062942125 -0.079176471
0.2049263 0.065450028 -0.078553751
0.21491437 0.065051615 -0.076861054
0.22446951 0.06503883 -0.075305834
0.23411267 0.065100871 -0.073652752
0.24418841 0.0648413 -0.072047643
0.25327265 0.065084331 -0.070837781
0.19674714 0.076587968 -0.079708107
0.20416549 0.074714944 -0.078347556
0.21516663 0.075315431 -0.076681182
0.22519471 0.074990496 -0.075324155
0.2336123 0.074889176 -0.07358522
0.24439275 0.074938305 -0.072295837
0.25204006 0.075525567 -0.07089632
0.19689655 0.084652528 -0.079567403
0.20514119 0.085238218 -0.078347392
0.21469714 0.084777057 -0.076773055
0.22309917 0.084891163 -0.075255185
0.23323263 0.085319936 -0.074080691
0.2458103 0.085391447 -0.072721817
0.25195125 0.084419884 -0.070822202
0.19808631 0.094626106 -0.079734087
0.20432132 0.094825812 -0.078270689
0.2148229 0.095604897 -0.077033468
0.22352852 0.095266253 -0.075702816
0.23454832 0.094614752 -0.074103549
0.24426822 0.094934642 -0.072479919
0.25270799 0.095435604 -0.070870414
0.18700001 0.10667345 -0.079889625
0.19694789 0.10453603 -0.079395674
0.20449366 0.10456139 -0.078434207
0.21532023 0.10464631 -0.076640405
0.22455917 0.10358649 -0.075456843
0.23386388 0.10526056 -0.07394813
0.24475935 0.1049688 -0.072495453
0.25339431 0.10509416 -0.070863374
0.26000002 0.10947926 -0.070099115
0.19686535 0.11476989 -0.079689093
0.20443378 0.11508365 -0.078670226
0.21462673 0.11528286 -0.077015333
0.223858 0.11513272 -0.075260565
0.23439889 0.11486755 -0.073943309
0.24458745 0.11496456 -0.072052255
0.25396875 0.11462677 -0.070678592
0.26000002 0.11192568 -0.070099115
0.18800001 0.12854022 -0.079873048
0.19805978 0.12398731 -0.0797216
0.20427568 0.12515117 -0.07864435
0.21368194 0.12535048 -0.076842584
0.2251308 0.12572384 -0.075636171
0.23430003 0.12461156 -0.073872618
0.24413937 0.12519552 -0.07218843
0.25355548 0.12479102 -0.070948504
0.18700001 0.13064709 -0.079889625
0.19802891 0.13505413 -0.079637334
0.20482942 0.13485862 -0.07859762
0.21407066 0.13476396 -0.076864474
0.22418864 0.13504343 -0.075323746
0.23538218 0.13529925 -0.073652714
0.24454419 0.13474271 -0.072173409
0.25519997 0.1352905 -0.070841536
0.26000002 0.1373072 -0.070160277
0.19826923 0.14158291 -0.079661019
0.20446408 0.1445009 -0.078565896
0.21453059 0.14507692 -0.076770298
0.22419362 0.14453802 -0.075240985
0.23486593 0.1456828 -0.07297758
0.24358265 0.14437209 -0.07115858
0.25147617 0.14213243 -0.070711695
0.26000002 0.1403652 -0.070099115
0.20592308 0.15191032 -0.078630581
0.21479195 0.15595563 -0.07609275
0.2239372 0.15526292 -0.07334692
0.23205388 0.15222009 -0.072320342
0.21470466 0.1609688 -0.074534699
0.31800005 -0.31080648 -0.060677361
0.30800003 -0.30248174 -0.061305072
0.31564701 -0.30474177 -0.060724586
0.2974 -0.29081172 -0.062272519
0.30420595 -0.29288554 -0.061234679
0.31252936 -0.29571939 -0.060300685
0.28770003 -0.28132504 -0.064233482
0.29530641 -0.28426415 -0.063307554
0.30380914 -0.2845993 -0.061726589
0.31381831 -0.28455707 -0.060394488
0.27771431 -0.27180508 -0.066194043
0.2849839 -0.27516577 -0.065160193
0.29402077 -0.27553484 -0.064407334
0.30427888 -0.27591583 -0.06311968
0.312875 -0.27483267 -0.061256811
0.26783338 -0.26159689 -0.06853243
0.27443758 -0.26391855 -0.066703983
0.28289476 -0.26514119 -0.064893365
0.29471695 -0.26455024 -0.064354561
0.30430645 -0.26516217 -0.063088693
0.31392533 -0.2655986 -0.061109103
0.25809997 -0.25195685 -0.069404073
0.26530683 -0.25455096 -0.068851255
0.27506366 -0.25509021 -0.066828169
0.28425008 -0.25521693 -0.064937942
0.29453528 -0.25479439 -0.064128287
0.30454674 -0.25471953 -0.062402021
0.31355774 -0.25406951 -0.060688801
0.32100001 -0.25257599 -0.060117152
0.25564441 -0.24582677 -0.069783896
0.26437134 -0.2452208 -0.06899292
0.27388239 -0.24478884 -0.066886611
0.28401414 -0.24509989 -0.065394595
0.29478866 -0.24484831 -0.064026691
0.30401564 -0.2454803 -0.062357567
0.31441176 -0.24505486 -0.061169926
0.32178575 -0.24475446 -0.060209684
0.25803569 -0.23433726 -0.069806822
0.26485714 -0.23470126 -0.068963185
0.27417108 -0.23488946 -0.066926531
0.28419989 -0.23489481 -0.065195903
0.29445669 -0.23462623 -0.063838862
0.30421305 -0.23456457 -0.062336788
0.31450877 -0.23495969 -0.060942482
0.32128572 -0.2366078 -0.060170662
0.25690621 -0.22539639 -0.069828652
0.26538941 -0.22525823 -0.06903898
0.27430657 -0.22483914 -0.06729155
0.2841973 -0.22497809 -0.065608762
0.29444447 -0.22595844 -0.064711697
0.3031221 -0.22559315 -0.06311135
0.31306249 -0.22759174 -0.060880747
0.25340003 -0.21917419 -0.069987938
0.26584503 -0.21567261 -0.069562986
0.27464652 -0.21573862 -0.067981489
0.28352055 -0.21496221 -0.066023313
0.29460865 -0.21573712 -0.064838909
0.30077279 -0.21803986 -0.063337803
0.26448718 -0.204446 -0.069003038
0.27473691 -0.20472908 -0.067684233
0.28285998 -0.20642942 -0.065794349
0.29000002 -0.20976529 -0.065226205
0.26541999 -0.19498022 -0.068863913
0.27250782 -0.19601537 -0.067021891
0.28 -0.19989738 -0.064952962
0.26544756 -0.1847557 -0.065809049
0.26272786 -0.17498612 -0.065423712
0.25863639 -0.16113898 -0.067127869
0.26086414 -0.16533038 -0.065187126
0.2579509 -0.15456639 -0.065430835
0.26000008 -0.1591672 -0.066327564
0.25595623 -0.14481017 -0.065702081
0.25420192 -0.13494891 -0.065326542
0.25197566 -0.12490357 -0.065240353
0.24894758 -0.11257674 -0.064718701
0.25031003 -0.11722908 -0.065542966
0.24721986 -0.10501348 -0.065178894
0.24514516 -0.095097646 -0.065015048
0.24318729 -0.085137062 -0.065059483
0.23900001 -0.070666842 -0.061176471
0.24087776 -0.075224333 -0.065089829
0.23832768 -0.06451425 -0.064460956
0.23999988 -0.068243966 -0.068485059
0.23663382 -0.054934666 -0.064855352
0.2358686 -0.047647268 -0.064414389
0.25463632 -0.042562313 -0.069514073
0.2643044 -0.040687405 -0.068324119
0.259 -0.038989641 -0.069829494
0.26559988 -0.035327815 -0.068976209
0.27492926 -0.034986578 -0.066817917
0.28317395 -0.033510648 -0.064443305
0.29307693 -0.031839188 -0.06347239
0.30660003 -0.031829361 -0.062602475
0.31028572 -0.030912651 -0.060821444
0.25778255 -0.022975432 -0.069711037
0.2644375 -0.025194615 -0.069108397
0.27452949 -0.024837282 -0.067696981
0.28410006 -0.024930846 -0.065617405
0.29383022 -0.02490402 -0.064215414
0.30494112 -0.025168052 -0.062845036
0.31397998 -0.024629999 -0.060862459
0.32100001 -0.025670247 -0.060117148
0.25713331 -0.015066508 -0.069726333
0.26477379 -0.014684392 -0.06918779
0.27432206 -0.014978936 -0.06734696
0.28399992 -0.015231039 -0.06553293
0.29490477 -0.014829494 -0.064428486
0.30372021 -0.01471605 -0.06239542
0.31467211 -0.015251988 -0.060962472
0.32100001 -0.010945913 -0.060117144
0.25489998 -0.0046605393 -0.069767453
0.26666662 -0.0043935087 -0.069344491
0.2740564 -0.0050846832 -0.067203656
0.28429687 -0.0046376092 -0.065533377
0.29500005 -0.0052319812 -0.064471409
0.30428568 -0.0050081732 -0.062343247
0.31498158 -0.0050043412 -0.060862388
0.32133338 -0.0047210888 -0.060179573
0.25601989 0.0052065025 -0.069767624
0.26451644 0.0048222393 -0.069049969
0.27448222 0.0048093996 -0.067428544
0.28453851 0.0052379561 -0.065368734
0.29422861 0.0051915809 -0.063843988
0.30411112 0.0040966547 -0.062641829
0.31504416 0.0053427778 -0.061355732
0.32100004 0.0049797054 -0.060117148
0.25556135 0.014935006 -0.069751069
0.26515916 0.01479317 -0.06926062
0.27483141 0.015045098 -0.06793268
0.28465551 0.015030545 -0.065703012
0.2944181 0.015108114 -0.063820854
0.30505082 0.015445174 -0.063093811
0.31518474 0.014388245 -0.06174431
0.32234481 0.015630059 -0.060418557
0.25699997 0.024404801 -0.069690652
0.26437241 0.025378969 -0.068989746
0.27432048 0.02483568 -0.067669302
0.28424469 0.024495663 -0.065775767
0.2942 0.025061155 -0.064211383
0.30489868 0.025292702 -0.063019983
0.31449091 0.024513468 -0.061283264
0.32145005 0.024922527 -0.060389489
0.25816661 0.034115788 -0.069831505
0.26450425 0.035108149 -0.068659581
0.27425373 0.034009017 -0.067298651
0.28437811 0.035328075 -0.066006698
0.29440588 0.034965578 -0.064672135
0.30301255 0.03503219 -0.062781058
0.31263161 0.03637515 -0.061599877
0.32450005 0.034983214 -0.061222788
0.25800002 0.047177516 -0.069859803
0.26548332 0.04492848 -0.068568468
0.27338889 0.045200363 -0.06699758
0.28541332 0.044183549 -0.066610053
0.29400006 0.045320112 -0.064611033
0.30372855 0.045065653 -0.062375627
0.31462225 0.044883806 -0.061235249
0.32417959 0.044861648 -0.060709152
0.25688094 0.055082243 -0.069843672
0.26520216 0.05483859 -0.06909965
0.2736634 0.055308782 -0.067168333
0.28508455 0.054846849 -0.066114113
0.29426143 0.054856766 -0.064482443
0.30410665 0.054827556 -0.06245536
0.31344438 0.055167001 -0.060811635
0.32211113 0.051564332 -0.060322888
0.25733334 0.06495405 -0.069484152
0.2644411 0.06490574 -0.068799153
0.27383691 0.064748034 -0.067500852
0.28446063 0.065070249 -0.066065371
0.29444578 0.064925916 -0.064546674
0.30414712 0.065041542 -0.062654279
0.31189108 0.065022729 -0.060981814
0.25657409 0.074495621 -0.069752209
0.26486453 0.075381882 -0.068899415
0.27410212 0.074823454 -0.067329943
0.28442857 0.074680142 -0.065883063
0.29445255 0.075111568 -0.064426541
0.30430439 0.074787863 -0.062666059
0.31352466 0.075416245 -0.060969714
0.25651926 0.085095569 -0.069805965
0.26537332 0.084497087 -0.068923846
0.27379107 0.084822185 -0.067547709
0.28489879 0.084813893 -0.066017441
0.29397136 0.085002162 -0.064232729
0.30444452 0.085136525 -0.062786587
0.31425762 0.085118942 -0.061095439
0.32153848 0.085093528 -0.060217984
0.25706059 0.094970889 -0.069781415
0.2652556 0.095161542 -0.069196358
0.27289563 0.09573745 -0.067874826
0.28596243 0.095489055 -0.067352377
0.29338175 0.09521877 -0.064718276
0.30409521 0.095058911 -0.062744178
0.31452855 0.095416121 -0.061210334
0.32116666 0.092171662 -0.060148362
0.25807992 0.10373299 -0.069750339
0.26429555 0.10494048 -0.069040462
0.27361909 0.10521141 -0.067768969
0.28492135 0.10493352 -0.066376545
0.29492709 0.1050195 -0.064246617
0.30402675 0.10525762 -0.061945017
0.31264585 0.10405967 -0.060769677
0.25827274 0.11645139 -0.069715202
0.26306164 0.11447018 -0.069078706
0.27506483 0.11535349 -0.067767426
0.28490672 0.11484542 -0.066260561
0.29470831 0.11548949 -0.064156123
0.30291763 0.11459433 -0.061340146
0.312125 0.11159903 -0.06028866
0.25803027 0.12546791 -0.069714025
0.26448271 0.12518695 -0.069129452
0.27532393 0.12530667 -0.067393847
0.28504783 0.12629196 -0.063968219
0.29326138 0.12323202 -0.06220619
0.30025002 0.1204235 -0.060645197
0.25885716 0.13183299 -0.069703944
0.26474801 0.13682854 -0.065906078
0.27416432 0.13378215 -0.064377598
0.28197372 0.13089038 -0.061652172
0.23862225 0.14947966 -0.063812599
0.24432424 0.14758778 -0.06534721
0.25452828 0.14369337 -0.065295652
0.26075 0.14076753 -0.065080315
0.21679266 0.15906397 -0.064200796
0.224411 0.15639359 -0.064967774
0.2336238 0.15205427 -0.065198511
0.21414134 0.16103987 -0.06439127
0.36700001 -0.36042464 -0.050602753
0.35800004 -0.35046068 -0.053570896
0.36326921 -0.35389617 -0.051200092
0.37475002 -0.35149252 -0.050125867
0.3558549 -0.34435782 -0.05393238
0.36334369 -0.34494701 -0.05113541
0.37449995 -0.34448647 -0.050818212
0.38000003 -0.34279978 -0.050607461
0.34812501 -0.33267376 -0.056290388
0.35543936 -0.33620271 -0.054638203
0.36368093 -0.33578157 -0.052796155
0.3744894 -0.33498347 -0.051608827
0.38431254 -0.33243465 -0.05072676
0.39130002 -0.33504257 -0.05027144
0.33700004 -0.32192266 -0.056294274
0.34335718 -0.32531998 -0.055704646
0.35456523 -0.32470345 -0.053959716
0.36359268 -0.32483923 -0.053138491
0.37330437 -0.32498211 -0.051961794
0.38321739 -0.32469201 -0.051031657
0.39000002 -0.32888573 -0.050104424
0.31892306 -0.31136233 -0.058862351
0.3239333 -0.31137702 -0.056925375
0.33296776 -0.31403005 -0.055580772
0.34579417 -0.31360489 -0.054515157
0.35412499 -0.3160747 -0.053682808
0.36475998 -0.31661493 -0.05382492
0.37498218 -0.31540149 -0.052671786
0.38140002 -0.31533667 -0.050612308
0.31900001 -0.30865723 -0.059492458
0.32445723 -0.30562386 -0.0585883
0.33351681 -0.3058424 -0.056073643
0.3436957 -0.30513009 -0.054938897
0.35272729 -0.30777571 -0.054063093
0.36700001 -0.30313203 -0.053818587
0.37446937 -0.30522338 -0.051750306
0.38205004 -0.30460924 -0.050384484
0.31600007 -0.29441535 -0.059826847
0.32519999 -0.2946617 -0.058943056
0.33487502 -0.29502621 -0.05616321
0.34163636 -0.29723018 -0.054262806
0.3545714 -0.29149696 -0.053893466
0.36505413 -0.29472232 -0.053227428
0.37436667 -0.29514492 -0.051672593
0.38169563 -0.29466721 -0.05036293
0.31871432 -0.28301668 -0.059689082
0.32432839 -0.28483668 -0.058097292
0.33391353 -0.28434569 -0.054303322
0.34481582 -0.28314805 -0.054882124
0.353946 -0.28435689 -0.054514769
0.36427444 -0.28475684 -0.053328626
0.37447172 -0.28427845 -0.051959727
0.38183334 -0.28572044 -0.050500732
0.31780645 -0.2747083 -0.059468828
0.32457685 -0.27523383 -0.05791023
0.33406776 -0.27579615 -0.057099823
0.34418532 -0.27557829 -0.056248043
0.35377774 -0.27539665 -0.054631069
0.36452383 -0.27574816 -0.054300256
0.37437838 -0.27664149 -0.053158641
0.38000005 -0.27764583 -0.051302701
0.31876925 -0.26581857 -0.059699364
0.32381251 -0.26510224 -0.059003502
0.33479419 -0.26461279 -0.057791289
0.34413326 -0.26544169 -0.055465274
0.35452175 -0.2642906 -0.054860685
0.361 -0.26706189 -0.054626614
0.31712502 -0.25698459 -0.059763096
0.32510003 -0.25541967 -0.059407931
0.33499995 -0.25497022 -0.057807796
0.34462968 -0.25541753 -0.055348285
0.3515 -0.25837889 -0.054872118
0.32622579 -0.24444412 -0.059581395
0.33307275 -0.24550377 -0.057526041
0.3405 -0.24909733 -0.055759482
0.32575002 -0.23711888 -0.059213486
0.3301667 -0.23868962 -0.057432313
0.26392066 -0.18412153 -0.055042692
0.26189074 -0.17516747 -0.055008929
0.25876468 -0.16249555 -0.053697798
0.26045036 -0.16706669 -0.05600483
0.257357 -0.15509649 -0.055117287
0.25517052 -0.14485127 -0.055124983
0.25261721 -0.13475376 -0.054957312
0.24900004 -0.12107369 -0.051318746
0.2506232 -0.12520403 -0.055381257
0.24812426 -0.11472646 -0.054696817
0.25 -0.11885758 -0.059124634
0.24594118 -0.10501333 -0.055075806
0.24369955 -0.095036581 -0.054981634
0.23900001 -0.080392972 -0.050382156
0.24117155 -0.084939986 -0.054948248
0.23860842 -0.073189706 -0.053902756
0.24005672 -0.077541992 -0.0563582
0.23720329 -0.065074168 -0.055132646
0.23473886 -0.055043593 -0.054913446
0.23441012 -0.047035597 -0.055032961
0.30900002 -0.03234271 -0.059323508
0.31100002 -0.03138059 -0.059268542
0.31820002 -0.028812733 -0.058090575
0.32505769 -0.0245145 -0.05739022
0.33200002 -0.020687938 -0.056183528
0.34300002 -0.020571396 -0.054555189
0.37800014 -0.021782365 -0.052387524
0.31900001 -0.018381609 -0.059742589
0.32453969 -0.015145497 -0.059013482
0.33463264 -0.015099215 -0.05739408
0.34296301 -0.015098424 -0.055439904
0.35361543 -0.012628607 -0.054959778
0.36656252 -0.012989439 -0.054959789
0.37443751 -0.015230803 -0.052556008
0.32599995 -0.0049839639 -0.059131447
0.3341957 -0.0053640231 -0.057608645
0.34441862 -0.0049958378 -0.056356113
0.35427448 -0.0044517121 -0.054706372
0.36410257 -0.0053071626 -0.053031273
0.37376314 -0.0052722264 -0.0513895
0.38200006 -0.0027632078 -0.050498035
0.32469815 0.0048681758 -0.05898745
0.33461916 0.0057990733 -0.057617415
0.3452684 0.0046695983 -0.056612097
0.35382134 0.0047622425 -0.054484785
0.36347371 0.0053396956 -0.052562624
0.37412909 0.0045897746 -0.051523067
0.38290909 0.0049591032 -0.050543025
0.32678574 0.015135631 -0.05946755
0.33429414 0.014963284 -0.058282088
0.34403226 0.015035686 -0.056302439
0.3546136 0.014730825 -0.054423764
0.36429265 0.01505761 -0.052793015
0.3739 0.015566882 -0.05143198
0.38281822 0.014859152 -0.050530814
0.32594121 0.024832331 -0.059098046
0.33446163 0.024979983 -0.057515804
0.34569997 0.024806781 -0.056442879
0.35499996 0.025570832 -0.054785393
0.36433339 0.02467622 -0.052619968
0.37354162 0.024714872 -0.05117188
0.38219047 0.024510631 -0.050469048
0.32816136 0.034628794 -0.059340697
0.33403924 0.035071101 -0.057897672
0.34517071 0.035592828 -0.056715187
0.35464418 0.034960974 -0.054760177
0.36364523 0.034733683 -0.05256087
0.37384611 0.035753056 -0.051237848
0.38299999 0.035765886 -0.050464865
0.32827279 0.045351218 -0.059583008
0.33437511 0.045296304 -0.058301337
0.34485421 0.045021322 -0.05683643
0.35441378 0.044704679 -0.054737043
0.36486119 0.045201272 -0.052924983
0.37445459 0.044927265 -0.051183239
0.31727275 0.057975996 -0.059756979
0.32471433 0.055256981 -0.059352811
0.33449998 0.054495502 -0.058075506
0.34469226 0.055206306 -0.056626346
0.35557145 0.054747075 -0.055533022
0.36420006 0.054954302 -0.053597387
0.37482059 0.055012692 -0.051764783
0.3825556 0.05579906 -0.050496161
0.31740546 0.064686954 -0.059502304
0.32385185 0.065751307 -0.058812771
0.33508825 0.06504643 -0.058715556
0.34522027 0.065221898 -0.057363745
0.35442865 0.065363534 -0.055453736
0.36440539 0.064926274 -0.054293722
0.37441507 0.065466225 -0.052380219
0.3823182 0.063892193 -0.050668657
0.31800002 0.072805025 -0.059758034
0.32396364 0.075283945 -0.058904257
0.33428943 0.075151913 -0.05792471
0.34464157 0.074633516 -0.056980196
0.35424447 0.074933961 -0.055040009
0.36443862 0.075447239 -0.052841574
0.37291667 0.073557049 -0.051097851
0.32643408 0.085376702 -0.059072629
0.33368331 0.085247993 -0.057055473
0.34464863 0.085135065 -0.05614927
0.35485107 0.085257761 -0.055189058
0.36434188 0.084991023 -0.052329723
0.37033334 0.082760297 -0.050191224
0.31900001 0.097928748 -0.059742589
0.32491893 0.094938032 -0.058683723
0.33370909 0.094771713 -0.056393657
0.34460416 0.096056759 -0.054599207
0.35419485 0.095116451 -0.052531905
0.36204544 0.091899879 -0.051155325
0.31751728 0.10578989 -0.059643339
0.32460001 0.10535476 -0.058092587
0.33363578 0.10590158 -0.054086689
0.34383333 0.10230479 -0.052589893
0.35000002 0.10003554 -0.051140346
0.30709723 0.11835083 -0.056682963
0.31465495 0.11584093 -0.055411611
0.32413393 0.11239558 -0.054029323
0.33000001 0.11062077 -0.053263765
0.28671569 0.12876813 -0.054504521
0.29468653 0.12567438 -0.055395912
0.30314285 0.12200808 -0.055127036
0.26516932 0.13799377 -0.054900259
0.27418268 0.13416061 -0.055241808
0.28228438 0.13125871 -0.055391006
0.23828131 0.14942081 -0.056228686
0.24428429 0.14705691 -0.055067357
0.25424677 0.14274338 -0.054910947
0.26062509 0.1406348 -0.055944655
0.2160801 0.15844324 -0.0547156
0.22428598 0.15560327 -0.055168767
0.23320642 0.15192048 -0.055083077
0.21318637 0.16141051 -0.054848418
0.36849999 -0.36146435 -0.049508747
0.37499997 -0.3643035 -0.043346491
0.38504347 -0.36127514 -0.041593622
0.39385718 -0.36262447 -0.043663315
0.40000001 -0.36429194 -0.045743596
0.36729169 -0.35495198 -0.049201492
0.37528202 -0.35610041 -0.046473466
0.38382766 -0.35566902 -0.046735074
0.39345458 -0.35453582 -0.047645483
0.40000001 -0.3530792 -0.048331141
0.36600003 -0.34997216 -0.049603928
0.38379404 -0.34517267 -0.049382836
0.39440006 -0.34448975 -0.049109187
0.40000001 -0.34955075 -0.048566375
0.38460001 -0.33833486 -0.049859498
0.39652941 -0.33603072 -0.049460068
0.38699999 -0.32317397 -0.049719006
0.39430004 -0.32395488 -0.049261708
0.40000001 -0.32320479 -0.048880015
0.38394123 -0.31451309 -0.049800787
0.39469239 -0.31483385 -0.048881497
0.40000001 -0.31097275 -0.047625449
0.38645455 -0.30499059 -0.049648929
0.39403027 -0.30499005 -0.048734009
0.40000001 -0.30720901 -0.047625449
0.38680002 -0.29515329 -0.049693309
0.39407411 -0.2962234 -0.048939839
0.40000001 -0.29497698 -0.048566375
0.38500002 -0.28528163 -0.04976159
0.38100001 -0.278725 -0.049844407
0.26211965 -0.18413572 -0.045028798
0.25900024 -0.17265685 -0.044603091
0.26009384 -0.17660932 -0.044974148
0.25787297 -0.1649922 -0.044969995
0.26000002 -0.16925865 -0.049763322
0.25563973 -0.15515189 -0.045010529
0.25324482 -0.14488429 -0.044959519
0.24900001 -0.13032201 -0.040189933
0.25102443 -0.13482818 -0.045093402
0.24853536 -0.12424149 -0.044298761
0.25005358 -0.12810062 -0.047376901
0.24653381 -0.11504097 -0.044973601
0.24418573 -0.10491364 -0.04508559
0.24166572 -0.094970241 -0.044836082
0.2388794 -0.083007224 -0.043886993
0.24028315 -0.08745794 -0.046222445
0.23778309 -0.075128011 -0.044956945
0.23535955 -0.06509497 -0.045026835
0.2331239 -0.054951165 -0.045014661
0.2335313 -0.048127472 -0.044087529
0.24679314 -0.042900942 -0.043168791
0.25286958 -0.041021071 -0.040990409
0.2487143 -0.039237231 -0.045033105
0.25463334 -0.038490791 -0.042202413
0.28394744 -0.036329307 -0.041383386
0.37899998 -0.021838963 -0.049136985
0.38136846 -0.021594487 -0.046678104
0.37842861 -0.015448058 -0.049316961
0.38371429 -0.015631828 -0.048066128
0.39489469 -0.014637878 -0.04686879
0.40000001 -0.015521622 -0.046684518
0.38523528 -0.0056126188 -0.049032979
0.39326087 -0.0044068294 -0.047543183
0.40000001 -0.005641887 -0.046684518
0.38705888 0.0042079785 -0.049404293
0.39402631 0.0054687657 -0.048078351
0.38700005 0.015023855 -0.04971901
0.39369783 0.015175385 -0.048289865
0.40000004 0.015528972 -0.046684518
0.38780004 0.024633978 -0.049821787
0.39516672 0.025100086 -0.048436664
0.40000001 0.020233607 -0.046684518
0.38600004 0.035861 -0.04967222
0.39445728 0.034634378 -0.048681479
0.40000001 0.036699831 -0.048095912
0.38338098 0.045330502 -0.049723733
0.39372218 0.044768944 -0.049190186
0.40000001 0.040934008 -0.048566375
0.38738462 0.055771764 -0.049627639
0.39381579 0.055802979 -0.048198331
0.40000001 0.053793341 -0.047625449
0.38603026 0.065883443 -0.048984904
0.39425525 0.064872451 -0.0467747
0.40000001 0.061634399 -0.045743592
0.37665001 0.076503605 -0.049449861
0.38416666 0.074965037 -0.048078649
0.39476365 0.075584285 -0.045438897
0.40000004 0.076689236 -0.042786393
0.36800003 0.089055963 -0.049332775
0.37479791 0.086678192 -0.046079777
0.38388884 0.083973952 -0.044234224
0.39310342 0.081450276 -0.042431112
0.34859997 0.099798635 -0.041998152
0.35487178 0.098270148 -0.045193505
0.36430261 0.093937024 -0.045040462
0.37106252 0.090725608 -0.043795291
0.3276667 0.10946907 -0.042576153
0.33452955 0.10686975 -0.045095369
0.34384155 0.10216018 -0.044999246
0.35000002 0.10003554 -0.046920877
0.30653751 0.11898224 -0.044758637
0.31436312 0.11564107 -0.04486572
0.32375255 0.11180293 -0.045532782
0.28615868 0.12822558 -0.044760995
0.29484421 0.1248953 -0.045143556
0.30173334 0.12150235 -0.045069467
0.25878945 0.1396791 -0.045934841
0.26384506 0.13691148 -0.044983659
0.27398512 0.13273872 -0.044844292
0.28167209 0.13055524 -0.045051686
0.23673347 0.14942604 -0.045088541
0.24395606 0.14598608 -0.045062058
0.25430667 0.14206457 -0.044992447
0.26000002 0.1403652 -0.044309869
0.21612634 0.15801251 -0.044933055
0.22442843 0.15466838 -0.04528838
0.23229077 0.15135133 -0.045113549
0.21309999 0.16060171 -0.044809856
0.39900002 -0.37026408 -0.036243487
0.37667143 -0.36510593 -0.037276201
0.38491949 -0.36511126 -0.035875306
0.3915 -0.36605951 -0.035564739
0.25899997 -0.1807788 -0.031668272
0.26085132 -0.1843096 -0.035403363
0.25825217 -0.17452806 -0.034701157
0.26000002 -0.17860357 -0.038619567
0.25629163 -0.16505969 -0.035040118
0.25368074 -0.15490004 -0.034911454
0.25131163 -0.14491478 -0.034943089
0.24884465 -0.13408908 -0.033753041
0.25028005 -0.1372647 -0.03768988
0.24670139 -0.12485926 -0.035009582
0.24427789 -0.11486311 -0.034788135
0.2421172 -0.10487976 -0.035151634
0.23899019 -0.092206657 -0.033565376
0.24024454 -0.096479066 -0.035606761
0.23752615 -0.085111856 -0.0349936
0.23546098 -0.075050749 -0.034743518
0.23320255 -0.064867549 -0.035022806
0.23070547 -0.054743443 -0.034746047
0.23083687 -0.048372205 -0.03497481
0.24557146 -0.04467145 -0.037129305
0.2541464 -0.04260594 -0.038541682
0.257 -0.039393861 -0.03946602
0.28429177 -0.03640103 -0.038696248
0.39676669 0.078709736 -0.033120535
0.40000004 0.077630162 -0.034687702
0.36900005 0.089841932 -0.030914398
0.37463999 0.087702215 -0.034551743
0.3842769 0.084204949 -0.035058215
0.39316288 0.081372142 -0.036063645
0.3475517 0.099276312 -0.03357894
0.35448423 0.096736684 -0.034875087
0.36463854 0.092847936 -0.035176378
0.37078568 0.090587877 -0.036923118
0.32680279 0.10870905 -0.035116181
0.33395585 0.10519233 -0.034490835
0.34353843 0.10185544 -0.035944574
0.30719191 0.11812177 -0.034475707
0.31427097 0.11426458 -0.035262927
0.32199997 0.11097583 -0.034721088
0.28479189 0.12742436 -0.034923118
0.29447663 0.12398455 -0.034775771
0.30244008 0.12152199 -0.03540517
0.25811398 0.13915983 -0.033998482
0.26393491 0.13649596 -0.03517947
0.27482376 0.13311487 -0.035049062
0.28006458 0.13041301 -0.035131585
0.23665287 0.14847817 -0.034960244
0.24439864 0.1449147 -0.03487929
0.25324187 0.14145146 -0.035503201
0.21582703 0.15749769 -0.034985013
0.22359121 0.15368465 -0.034797914
0.23230132 0.15132947 -0.035367209
0.21229994 0.16101989 -0.032590445
0.25848743 -0.18321799 -0.024503395
0.26002514 -0.18675324 -0.0268769
0.25644174 -0.17489788 -0.024866195
0.25391665 -0.1648308 -0.024904087
0.25173181 -0.15504931 -0.024910843
0.24899983 -0.14134102 -0.024421062
0.25039771 -0.14617908 -0.025547715
0.24778044 -0.13498968 -0.025069559
0.24541767 -0.12500946 -0.025070241
0.24287222 -0.11474162 -0.024850789
0.23900004 -0.10070258 -0.021920588
0.24089023 -0.10518124 -0.025265163
0.23836863 -0.09457691 -0.024469562
0.23999989 -0.098583452 -0.028275348
0.23637323 -0.085007057 -0.024987707
0.23393224 -0.07524088 -0.025047865
0.24900001 -0.076435104 -0.020275207
0.23187588 -0.065020293 -0.025307601
0.22900008 -0.052977458 -0.025432812
0.23003742 -0.056841582 -0.026099717
0.22900005 -0.04922381 -0.027138822
0.23 -0.048461966 -0.028966112
0.24900001 -0.045196325 -0.029061114
0.25133336 -0.043582484 -0.028938511
0.2951 -0.034223862 -0.021874953
0.30150002 -0.036877461 -0.020294759
0.3958334 0.07857246 -0.025281368
0.40000007 0.076616868 -0.025043197
0.36873335 0.089545533 -0.024012469
0.37429169 0.086555779 -0.025166498
0.38401559 0.082350351 -0.024932433
0.39080003 0.080562785 -0.02476893
0.33883336 0.099367566 -0.024401851
0.34370145 0.098454177 -0.025187997
0.35562503 0.096694492 -0.02538614
0.36391264 0.092702828 -0.024838228
0.32720691 0.10883111 -0.024351114
0.33453396 0.10406269 -0.025127467
0.34 0.10037652 -0.024885762
0.30622032 0.11813775 -0.025023099
0.31423545 0.11392859 -0.02492588
0.3223871 0.11076661 -0.025126947
0.2785385 0.12965772 -0.021471696
0.28420389 0.1269678 -0.024822623
0.29443479 0.12260392 -0.025158195
0.3017143 0.12050214 -0.025602676
0.25807065 0.13920641 -0.024722068
0.26382452 0.13612498 -0.024917703
0.27454731 0.13244322 -0.02538396
0.28 0.13008575 -0.02708065
0.23478477 0.14804973 -0.024827806
0.24527876 0.14445361 -0.024990268
0.25323951 0.14115568 -0.025030984
0.21483102 0.1570137 -0.024978554
0.22421104 0.15306731 -0.025247492
0.23045748 0.15062912 -0.025973417
0.2112 0.1603225 -0.024405962
0.25742856 -0.1821423 -0.018972911
0.25534892 -0.17438099 -0.01776083
0.28266665 -0.17687812 -0.012397421
0.25443286 -0.16503145 -0.017194418
0.28564289 -0.16202562 -0.011781446
0.29171428 -0.16743381 -0.01066566
0.25331262 -0.15521178 -0.018203044
0.27900001 -0.15685233 -0.014186147
0.28258839 -0.15418045 -0.012375746
0.25161296 -0.14545341 -0.018451275
0.28526831 -0.14836612 -0.012079515
0.294 -0.14038832 -0.010453563
0.24783333 -0.13575174 -0.019597227
0.25 -0.13966657 -0.019180475
0.26624563 -0.13229322 -0.01364394
0.29490909 -0.13655661 -0.010390938
0.24448578 -0.12467006 -0.01869205
0.26505172 -0.12510528 -0.013870838
0.29358336 -0.12396993 -0.010494225
0.24269418 -0.11444434 -0.018498395
0.26390558 -0.1154337 -0.013672324
0.28368753 -0.11384863 -0.011914128
0.29232427 -0.11476137 -0.010587001
0.23900001 -0.10035121 -0.019460941
0.24329723 -0.1056319 -0.017950486
0.25514489 -0.10453898 -0.015747609
0.26305458 -0.10371616 -0.013751405
0.273 -0.10788067 -0.012596702
0.28755558 -0.105293 -0.011689655
0.29209089 -0.10458376 -0.010643404
0.30500001 -0.10008243 -0.010485955
0.23821273 -0.093655534 -0.019205604
0.24171428 -0.099123783 -0.018535705
0.25150001 -0.098205194 -0.016929127
0.26221219 -0.098581396 -0.014282666
0.28633335 -0.093305588 -0.010744345
0.29100001 -0.098226592 -0.010689156
0.30500001 -0.098647527 -0.010485955
0.23779999 -0.0862533 -0.019228112
0.24312985 -0.083262153 -0.017796228
0.28544447 -0.085247748 -0.011466475
0.23577778 -0.077927776 -0.019628517
0.24861236 -0.077006742 -0.017764572
0.25 -0.07359165 -0.016282083
0.28400001 -0.079496324 -0.011100087
0.23100001 -0.061128736 -0.019896301
0.28875002 -0.064524069 -0.011115786
0.29241666 -0.062814392 -0.010538503
0.29449999 -0.059573859 -0.01081772
0.30529413 -0.054134477 -0.011996083
0.30510005 -0.043170117 -0.013979177
0.30582488 -0.035392161 -0.015010293
0.31033334 -0.030535331 -0.011642392
0.30850005 -0.029387614 -0.015321507
0.31033334 -0.029562255 -0.012128537
0.39591309 0.077341042 -0.014371567
0.40000004 0.074702829 -0.015529377
0.36740544 0.089264564 -0.014664756
0.37410668 0.08676739 -0.01506356
0.38425371 0.083412029 -0.01457281
0.39151725 0.081062526 -0.016226841
0.34593108 0.098907933 -0.015557474
0.35471576 0.095770694 -0.014545615
0.36255565 0.091987945 -0.015851762
0.3186667 0.10956997 -0.011081274
0.32544315 0.10849002 -0.014936999
0.33442077 0.10473314 -0.015001219
0.34200004 0.10129265 -0.014321879
0.30595517 0.11807235 -0.014896424
0.31371444 0.11316662 -0.015005196
0.32164291 0.11078831 -0.017357226
0.2772688 0.12907015 -0.014298827
0.28374034 0.12536281 -0.015303631
0.29545724 0.12228678 -0.01468047
0.30065525 0.12017088 -0.014725437
0.25710446 0.13848752 -0.014715443
0.2640591 0.13517837 -0.014680132
0.27270138 0.1318156 -0.015500503
0.23473667 0.14773203 -0.015014354
0.24381147 0.14400266 -0.015288909
0.25259626 0.14141366 -0.014965482
0.2139139 0.15660289 -0.015039158
0.22424565 0.15260191 -0.014943741
0.23056911 0.15055069 -0.014172736
0.21020003 0.16025475 -0.016229033
0.289 -0.16077472 -0.0099358717
0.29466671 -0.16556343 -0.0088573042
0.28572732 -0.15228762 -0.0097001791
0.29133335 -0.15658797 -0.0091010407
0.28740004 -0.14811647 -0.0096773878
0.29344442 -0.14260462 -0.008937343
0.29525 -0.13569397 -0.0087613519
0.29734206 -0.12587366 -0.0089336662
0.3043333 -0.12421946 -0.0067082252
0.31022221 -0.12182237 -0.0043408964
0.29799998 -0.11598075 -0.0093206177
0.30489534 -0.11521125 -0.0075078038
0.31229687 -0.1139109 -0.0049244282
0.29824999 -0.10716034 -0.0095523093
0.30574575 -0.10426369 -0.008346227
0.31310907 -0.10613719 -0.0052820067
0.2976 -0.091072895 -0.0089697577
0.30487674 -0.095935054 -0.0072839186
0.29569575 -0.086467922 -0.0089539085
0.30509862 -0.083566584 -0.0074213264
0.30705136 -0.075733237 -0.0073217377
0.29632142 -0.064368583 -0.0086137997
0.30284098 -0.064285725 -0.0068958644
0.3061443 -0.05464042 -0.0074419384
0.30377778 -0.044939466 -0.0078749461
0.30482975 -0.036609303 -0.0084677711
0.31033334 -0.031508405 -0.0096962396
0.38800001 0.079864755 -0.0014744182
0.39523226 0.076623164 -0.0055109407
0.40000007 0.073096603 -0.0045994166
0.36655557 0.089123078 -0.0040789484
0.37474701 0.086382784 -0.0048312894
0.38393331 0.082121104 -0.0055678058
0.39000002 0.08027643 -0.0092799515
0.34694114 0.099044703 -0.0043797735
0.35476992 0.095126361 -0.0051488895
0.36172727 0.090987943 -0.0055735218
0.31900001 0.10993498 -0.0057145506
0.32436693 0.10815562 -0.004803061
0.333922 0.10406141 -0.0052406625
0.34252176 0.10104653 -0.0054218369
0.29856521 0.11959502 -0.0048902929
0.3042514 0.11711073 -0.0053060516
0.31467164 0.11281286 -0.004780666
0.32000002 0.1102796 -0.0032860548
0.27652726 0.12894812 -0.0047244309
0.28408965 0.12522067 -0.0051692026
0.29424009 0.12159689 -0.0050583333
0.24900001 0.13969821 -0.0053391652
0.25505823 0.13820136 -0.0049950769
0.26429635 0.1343213 -0.0051257317
0.27130398 0.13105893 -0.0047301715
0.22703946 0.14862902 -0.0022978913
0.2355451 0.14707325 -0.0050669848
0.24432777 0.14272231 -0.0055829547
0.25090772 0.1409376 -0.005289651
0.21414772 0.15589561 -0.0044521689
0.22354251 0.15197957 -0.0055564959
0.2310645 0.15074408 -0.0080852555
0.21100001 0.160154 -0.0037798441
0.38656756 0.078754805 0.0062177642
0.39480287 0.075980693 0.0050789979
0.40000004 0.073971003 0.0042300913
0.35900003 0.089940645 0.0091918092
0.36501792 0.088849127 0.0052923211
0.37505686 0.085907795 0.0049890564
0.38183635 0.081709594 0.0043432754
0.34527165 0.09848278 0.005527969
0.35432827 0.093908839 0.0048001977
0.36081254 0.090499699 0.0032956002
0.31875002 0.10980161 0.005581052
0.32448298 0.10776957 0.0050025638
0.334288 0.10341831 0.0050335797
0.34103853 0.1006508 0.0038215057
0.29784998 0.11942406 0.0056962878
0.30390963 0.11703534 0.0050369012
0.31447446 0.11296727 0.0048864041
0.26875001 0.12944199 0.0090937037
0.27547401 0.12846228 0.0054508825
0.28429604 0.12459252 0.0049048476
0.29317707 0.12114589 0.0047099818
0.24900001 0.13969821 0.0087182857
0.25485831 0.13758726 0.0053289966
0.2647098 0.13357744 0.005180154
0.27141795 0.13131557 0.0026845594
0.22785841 0.14886193 0.0057201283
0.23477978 0.14608449 0.0049925251
0.24411176 0.14236705 0.005366663
0.25087306 0.14114003 0.0027825253
0.20900007 0.15766442 0.0078445096
0.21391155 0.15479447 0.0048569534
0.22362767 0.1513377 0.005528965
0.39829418 0.069141813 0.015736841
0.40000001 0.068409078 0.015604854
0.38644895 0.078482442 0.014064359
0.39425495 0.073954873 0.015438789
0.40000001 0.070573211 0.011182497
0.35900006 0.089940645 0.011303015
0.36461195 0.088366717 0.014990277
0.37469897 0.084580213 0.014929795
0.38191888 0.081110321 0.01506654
0.33850002 0.099534974 0.018620174
0.34451327 0.097503044 0.015068777
0.35437396 0.092903212 0.014863757
0.36000001 0.090191178 0.016415505
0.31759578 0.10924207 0.01514759
0.32442185 0.10667625 0.015015082
0.33413571 0.10238311 0.015000393
0.34 0.10037652 0.011504593
0.29832351 0.11946452 0.015232815
0.30456102 0.11617164 0.01515066
0.31226316 0.11144008 0.014669367
0.26900002 0.12940465 0.01036771
0.27548194 0.12812081 0.014494779
0.28402141 0.12416375 0.015068429
0.29469535 0.12139872 0.015229383
0.24864708 0.1396369 0.017735578
0.25399619 0.13704604 0.015076713
0.26422769 0.13275434 0.014735952
0.27122456 0.13064107 0.016575664
0.22660014 0.14850986 0.015473736
0.23476039 0.1455908 0.014913219
0.24396853 0.14160612 0.01474205
0.25 0.14025925 0.011987736
0.20895728 0.15690048 0.014264614
0.21407238 0.15404688 0.015201339
0.22203793 0.151283 0.014482139
0.39900002 0.069927491 0.020071002
0.40000001 0.069161817 0.020121304
0.38663885 0.078923449 0.02598544
0.39446315 0.074916586 0.02475448
0.40000004 0.071396515 0.025061172
0.36606893 0.088690996 0.024947178
0.37434068 0.084836178 0.025432168
0.38236168 0.081377931 0.024070857
0.33850002 0.099534974 0.029369678
0.34448278 0.097196706 0.024816254
0.35496736 0.092945993 0.024954518
0.36126086 0.090505205 0.025635887
0.31639439 0.1086848 0.025817642
0.32456148 0.1058253 0.024498112
0.33406869 0.10155954 0.025119223
0.29652345 0.11871877 0.025312182
0.30414495 0.11452596 0.024962058
0.31180957 0.1107242 0.024472553
0.27522406 0.12827763 0.025328649
0.28318176 0.12424231 0.024785565
0.29173568 0.12150108 0.025014965
0.24729997 0.1391622 0.02533987
0.25470778 0.13654247 0.024962272
0.26479074 0.13267231 0.025207039
0.27087811 0.13052343 0.023848709
0.22602445 0.14835748 0.025437428
0.23446488 0.1449883 0.025134783
0.24245699 0.14160594 0.024773123
0.20846429 0.15583396 0.02229234
0.21447441 0.15332064 0.025122629
0.22212505 0.15075779 0.023642819
0.37855554 0.079602651 0.034478489
0.38431481 0.078209683 0.034916442
0.3954156 0.074709557 0.034699183
0.40000007 0.071727976 0.035005059
0.3649798 0.087391458 0.035234489
0.37371597 0.082606427 0.034499969
0.38000003 0.080005825 0.036396936
0.33723333 0.099610783 0.034233246
0.34461263 0.097135171 0.035362326
0.35466346 0.092827268 0.034847647
0.36008343 0.090212055 0.034629382
0.31622341 0.10820253 0.034977116
0.32517943 0.10512388 0.035191491
0.33226246 0.10154302 0.034691408
0.289 0.11990587 0.037906446
0.29487723 0.11767993 0.035177335
0.30347776 0.11349008 0.034726575
0.31189394 0.11117276 0.035086744
0.26875004 0.12944199 0.039121628
0.27518693 0.12753843 0.035201445
0.28401136 0.12269399 0.035125297
0.29082137 0.12106291 0.032023486
0.24733622 0.13919587 0.035143353
0.25439647 0.1359767 0.035351578
0.26447892 0.13202471 0.034941398
0.27092859 0.13037644 0.031472601
0.21900003 0.14949679 0.036853552
0.22473541 0.14848754 0.034954831
0.23386323 0.14420313 0.035089862
0.24270065 0.14109163 0.034869555
0.20869093 0.15537286 0.036487013
0.21502534 0.15281212 0.035005711
0.22000001 0.15033865 0.033147141
0.37850001 0.079690009 0.046935529
0.38487279 0.078306928 0.045066141
0.39482605 0.075107016 0.044961128
0.40000004 0.07292553 0.045257501
0.35872728 0.089565232 0.047195077
0.3646957 0.086500533 0.044845656
0.37322068 0.081667319 0.044977859
0.38000003 0.080005825 0.041909199
0.3364054 0.098432116 0.046128478
0.34389362 0.095711119 0.044068135
0.35444048 0.092120677 0.044922072
0.36000001 0.090191171 0.041820537
0.31589529 0.10787965 0.045314472
0.32495797 0.10467966 0.045195837
0.33172059 0.10146149 0.0442787
0.28878951 0.11961721 0.043452512
0.29443043 0.11748466 0.044788897
0.30397758 0.11385749 0.045582265
0.31174335 0.11122569 0.044673707
0.26826227 0.12920253 0.045797199
0.27456722 0.12614132 0.045299225
0.28392854 0.12201179 0.044618562
0.29033336 0.12031627 0.048411053
0.23900001 0.13970987 0.048846841
0.24545065 0.13882694 0.045509595
0.25363225 0.13484226 0.044942852
0.26375148 0.13121483 0.045041036
0.21795169 0.14935011 0.047264989
0.22532117 0.14735667 0.044823356
0.23354016 0.14285246 0.044982161
0.24259262 0.14067146 0.042857293
0.20793438 0.15544309 0.044738427
0.21382426 0.15242507 0.044666994
0.22092858 0.15030231 0.041850995
0.39816669 0.069234334 0.057258245
0.40000001 0.06840907 0.057193827
0.37808338 0.079602279 0.055038497
0.38447756 0.077777907 0.054988485
0.39375901 0.073416419 0.055244446
0.40000001 0.07160823 0.052112829
0.35863635 0.089696005 0.056000147
0.36436808 0.086870067 0.055035152
0.37313166 0.082003191 0.055055235
0.33640996 0.097503997 0.054367393
0.34305087 0.094111726 0.056661613
0.35492507 0.09206143 0.054925829
0.36000001 0.090191171 0.054946471
0.31530005 0.10726178 0.054905541
0.32426468 0.10335775 0.055148136
0.33181635 0.10107873 0.05551577
0.2864832 0.11864281 0.056520227
0.29451576 0.11656021 0.054668974
0.30384558 0.11266003 0.054979857
0.31117651 0.11059541 0.053476382
0.26561001 0.12857969 0.055478327
0.27459338 0.12445831 0.055146467
0.28285861 0.12099905 0.05411844
0.23900001 0.13970987 0.059528716
0.24416678 0.13817482 0.055273246
0.25422493 0.13403369 0.055082422
0.26231816 0.1314002 0.05241216
0.21794769 0.14906207 0.055159926
0.22446905 0.14655584 0.055038244
0.23434767 0.14244793 0.055114392
0.24024996 0.14044002 0.054471478
0.2077083 0.15416585 0.055764277
0.21384321 0.15197247 0.055626202
0.39875004 0.069649033 0.062972933
0.40000001 0.069161817 0.065756269
0.37665963 0.078563437 0.065693513
0.38422728 0.075845577 0.065035596
0.39398441 0.072686404 0.064505965
0.40000001 0.070730031 0.065756269
0.35640627 0.088276297 0.065490969
0.36462647 0.085125603 0.065105096
0.37215 0.081660137 0.06439621
0.33654654 0.098363146 0.065265648
0.34397537 0.093823507 0.064919226
0.35189191 0.090641148 0.064881556
0.30784848 0.10924964 0.066787556
0.31438899 0.10738882 0.064926587
0.32401466 0.10337187 0.065069884
0.33199999 0.10080764 0.063784309
0.28483135 0.1179961 0.064843036
0.295203 0.1151462 0.065081067
0.30369699 0.11182777 0.064670116
0.26597524 0.12847912 0.064530857
0.27436587 0.12413354 0.065206878
0.280617 0.12086263 0.065184124
0.23817195 0.13937204 0.066434331
0.2438513 0.13714686 0.064919509
0.25380126 0.1330508 0.064957
0.26152003 0.13049997 0.065723874
0.21690184 0.14931202 0.064808197
0.22336097 0.14587758 0.065111153
0.23333658 0.14206402 0.064721733
0.20708941 0.15372686 0.064760104
0.212249 0.15154853 0.064659648
0.3961356 0.067965694 0.075896248
0.40000001 0.066809505 0.073518917
0.37622809 0.078336991 0.075037286
0.38427997 0.074747182 0.075190939
0.3917858 0.071490012 0.074207723
0.35465693 0.087465368 0.075013496
0.3643418 0.083497666 0.075074658
0.37158334 0.080878228 0.075264782
0.32816669 0.099712871 0.078649424
0.33483875 0.097287662 0.075528815
0.34492791 0.093246438 0.074604653
0.35038888 0.090438537 0.074127205
0.30773467 0.10921139 0.07517501
0.31436259 0.10620616 0.075023279
0.3237192 0.10204076 0.07485757
0.33053336 0.10027654 0.072815932
0.27900001 0.11977671 0.077367239
0.28549421 0.1181632 0.075193457
0.29510567 0.11459175 0.074889585
0.30253771 0.11131372 0.07488887
0.25875002 0.12949483 0.077075168
0.26501733 0.12783201 0.075222686
0.27422267 0.12308957 0.074940458
0.28064284 0.12048097 0.071832038
0.23722513 0.13924278 0.075011902
0.2441393 0.13664651 0.075064421
0.25389114 0.13230728 0.075006559
0.26410002 0.13033742 0.070810087
0.21623966 0.14877957 0.075275704
0.22424443 0.14561249 0.075097024
0.23223519 0.14169648 0.074772395
0.20742637 0.15248248 0.076083697
0.21206032 0.15070005 0.075695708
0.39721435 0.068275161 0.084077701
0.40000004 0.066621318 0.085703924
0.37531507 0.077920645 0.084885456
0.38466665 0.074493781 0.084888309
0.39279547 0.071586125 0.08561781
0.35476929 0.087119468 0.08487054
0.36467576 0.082945094 0.085099436
0.37081814 0.080648661 0.085184187
0.32627624 0.098328121 0.086203121
0.33398408 0.095057487 0.084360242
0.34468853 0.09231323 0.084777243
0.35111767 0.090927705 0.085121781
0.30613893 0.10839949 0.085752241
0.31415012 0.10524607 0.084891349
0.32254732 0.10187637 0.084500805
0.27900001 0.1197767 0.080976866
0.28443998 0.11788168 0.084890597
0.29481372 0.11415973 0.085493892
0.3010897 0.11121355 0.084127374
0.25787139 0.12942958 0.08494857
0.26437154 0.12669218 0.084753431
0.27428418 0.12235789 0.085035168
0.28 0.1203001 0.086301073
0.23662433 0.13869905 0.085361727
0.24483414 0.13606955 0.084879704
0.25331652 0.13219938 0.084782161
0.21487683 0.14818688 0.085140564
0.22395389 0.14457649 0.084901802
0.23210844 0.14155783 0.084745198
0.20696495 0.15234742 0.085679047
0.21050803 0.15063269 0.084309839
0.37833333 -0.37036777 0.099127032
0.37855554 -0.36880428 0.099284321
0.38137832 -0.36447725 0.098639175
0.38439035 -0.3561033 0.098927744
0.38500002 -0.34360239 0.098244049
0.39000002 -0.340812 0.097597614
0.38833332 -0.33882156 0.099082969
0.39185715 -0.33523384 0.098772682
0.39248002 -0.32436952 0.099030159
0.3934001 -0.31513515 0.099054888
0.39460874 -0.30472642 0.098670237
0.3959333 -0.29724711 0.099143602
0.38800001 0.069825061 0.09618441
0.39487323 0.067716047 0.09522178
0.40000004 0.065398112 0.095277861
0.37590322 0.078109346 0.095350131
0.38438997 0.073435701 0.095230214
0.39160007 0.071146324 0.091484442
0.34861904 0.089409143 0.095636763
0.35366383 0.086209334 0.095120609
0.36486116 0.082721159 0.095136963
0.37140629 0.080842994 0.094610184
0.32554844 0.098297991 0.095091775
0.3345165 0.095309213 0.095375709
0.34400004 0.091957524 0.095250152
0.35000002 0.090155795 0.090469189
0.30467862 0.1076802 0.094615117
0.31476939 0.10375285 0.095105357
0.32090914 0.1008637 0.095266514
0.27751067 0.11939857 0.095556684
0.28474122 0.11753801 0.095182724
0.2944895 0.11339315 0.09477184
0.30033341 0.1104484 0.096529692
0.25716069 0.12911458 0.095512114
0.26462144 0.12600407 0.095053352
0.27305874 0.12179746 0.094447561
0.28 0.12020601 0.090488195
0.2352764 0.13816658 0.095110506
0.24505368 0.13475837 0.095056325
0.25245577 0.13125823 0.094600067
0.20900002 0.14970461 0.096647725
0.21424718 0.14791927 0.095461838
0.22422712 0.14412761 0.094943896
0.2312033 0.14101472 0.094502188
0.20654468 0.15197423 0.095385857
0.21096663 0.15045021 0.093348496
0.37800002 -0.37033835 0.10200441
0.37802005 -0.36566079 0.10331247
0.38073805 -0.36308098 0.1021235
0.37541389 -0.3525382 0.10846477
0.38314262 -0.35498813 0.10395215
0.37333336 -0.34922364 0.10952604
0.38310316 -0.3439976 0.10443839
0.38600001 -0.33569124 0.10555471
0.39116988 -0.33240318 0.1029726
0.3886154 -0.32349822 0.10927488
0.39108399 -0.32570687 0.10474098
0.38822582 -0.31663576 0.10861165
0.39145893 -0.31397435 0.10435485
0.39446408 -0.30500937 0.10532199
