# .PCD v0.7 - Point Cloud Data file format
VERSION 0.7
FIELDS x y z
SIZE 4 4 4
TYPE F F F
COUNT 1 1 1
WIDTH 1393
HEIGHT 1
VIEWPOINT 0 0 0 1 0 0 0
POINTS 1393
DATA ascii
0.38247377 0.18536061 -0.0016861119
0.37756097 0.19421485 -0.0077136029
0.38286668 0.19560024 -0.0031865309
0.37858334 0.20304899 -0.0091563938
0.38423529 0.205162 -0.004803671
0.39000002 0.20687819 -0.00056461443
0.37849998 0.21724768 -0.009451488
0.38464788 0.21477394 -0.0060638562
0.39122733 0.21556245 -0.0011926425
0.37857142 0.22308083 -0.0094532715
0.38419151 0.22487703 -0.0071606133
0.39264289 0.22530136 -0.0025202488
0.38544446 0.23515262 -0.0081574423
0.3945286 0.23549432 -0.0033307762
0.3853265 0.24462682 -0.007671833
0.39417091 0.24469204 -0.0032314658
0.22237714 -0.20384204 0.0070201335
0.21800852 -0.19429739 0.0020905223
0.22313657 -0.1949387 0.0069521694
0.2173827 -0.18517829 0.0015352202
0.22434439 -0.18495624 0.0064524557
0.23 -0.18205552 0.0099466508
0.21820582 -0.17574014 0.00072686578
0.2243586 -0.17523554 0.0048366487
0.23104216 -0.17418423 0.0089209862
0.21900001 -0.16896968 0.00019810488
0.22453517 -0.16510741 0.0032083127
0.23254031 -0.1648971 0.0081306687
0.2255403 -0.15514734 0.0025845538
0.23277423 -0.1547371 0.0075391959
0.22636983 -0.14531976 0.0019560507
0.23393065 -0.14488702 0.0069522858
0.24000001 -0.14113687 0.0098145586
0.22758172 -0.13552985 0.0011921126
0.23417014 -0.13477963 0.0053412961
0.24075997 -0.1345122 0.0093708942
0.22859262 -0.12605201 0.00040629352
0.23469105 -0.12490517 0.0040774592
0.24135809 -0.12434646 0.0088846758
0.23507892 -0.11515764 0.0029452948
0.24266662 -0.11514643 0.0079230797
0.23606852 -0.10552573 0.0020452102
0.24279253 -0.10474547 0.0067725996
0.23728575 -0.095213927 0.0014689234
0.24337231 -0.094955981 0.0063911602
0.23830165 -0.08577098 0.00091969204
0.24230516 -0.085204795 0.0050588567
0.34359196 -0.083752654 0.0076550329
0.2389556 -0.074326731 0.00074088038
0.24082136 -0.076848231 0.0031148638
0.33876929 -0.071503185 0.0012877253
0.3422322 -0.075013317 0.0059128203
0.23822223 -0.069017686 0.00065197865
0.33755934 -0.064753979 0.0018562074
0.34299999 -0.065220818 0.0066501638
0.33758333 -0.055465966 0.0014161583
0.34414014 -0.054896984 0.006287795
0.33850008 -0.04605763 0.0006249423
0.34485713 -0.044966251 0.0048972527
0.35028571 -0.044606812 0.009321874
0.34487069 -0.035171639 0.0036444305
0.35128567 -0.034403555 0.0086061936
0.3456814 -0.025241425 0.0029875168
0.35251784 -0.024634536 0.0079051945
0.34601378 -0.01518598 0.0022158315
0.35343421 -0.014782106 0.0072427988
0.34733328 -0.0056335786 0.0014450426
0.35417643 -0.0050315768 0.0057935631
0.36129412 -0.0030181631 0.0091766585
0.34875 0.0030809185 0.00052071508
0.35436144 0.0050395131 0.0036282507
0.36234695 0.0055261161 0.0083507625
0.35523453 0.014907056 0.0027463778
0.36267802 0.015238496 0.0078536952
0.35577041 0.024609126 0.0021124412
0.3644866 0.025136342 0.0072108135
0.37 0.02829002 0.0099086314
0.35718191 0.034266323 0.0012422173
0.3645604 0.035232682 0.0058468687
0.36999997 0.034817703 0.0099086314
0.35845831 0.044693757 0.00074649812
0.36458054 0.044812448 0.0050476342
0.37099993 0.045664679 0.0094206817
0.35900003 0.051938951 0.00032474729
0.36438471 0.055022512 0.0037459088
0.37156671 0.05512587 0.0084956773
0.36497363 0.064777657 0.0027925342
0.37227654 0.065394729 0.0076261386
0.36618507 0.074961416 0.0020278345
0.37310454 0.075120442 0.0068825325
0.36788574 0.084455423 0.0013730474
0.37367862 0.085223801 0.0061265179
0.36864287 0.094216488 0.00051947118
0.37412128 0.094950274 0.0049873167
0.38000005 0.09698955 0.0092825517
0.36899999 0.10503203 0.0003337932
0.37439755 0.1047843 0.0041410984
0.38107994 0.10569253 0.0085575096
0.37470883 0.11485008 0.0032528543
0.38202703 0.11521156 0.0081695765
0.37594825 0.12483221 0.0023448609
0.38303563 0.12526037 0.0073527829
0.37639993 0.13471794 0.0015616929
0.38441181 0.13502623 0.0064110397
0.39000002 0.13899028 0.0095268292
0.37735996 0.14442788 0.0010532611
0.38529998 0.14496602 0.0049826424
0.39100003 0.14601599 0.0087476457
0.37850004 0.153924 0.00067670993
0.38458079 0.15499464 0.003846162
0.39199999 0.15540187 0.0083023561
0.37900004 0.16092436 0.00034283905
0.38466153 0.16496381 0.0031162405
0.39268303 0.1650427 0.0080653699
0.38664103 0.17447698 0.002057293
0.39331245 0.17532349 0.007029973
0.38781822 0.18519536 0.00080812792
0.39434114 0.18500233 0.0058620251
0.40000001 0.18960048 0.0097711068
0.38820004 0.19451156 0.00044266641
0.39490125 0.19492678 0.0047981669
0.40093753 0.19600034 0.0093231034
0.39476064 0.2047815 0.0033517294
0.40230301 0.20560175 0.0085980287
0.39630914 0.21488366 0.0026540596
0.402255 0.21502541 0.0078842351
0.39772236 0.22428052 0.001895904
0.40266159 0.22507311 0.0069742948
0.3983334 0.23415989 0.00067318609
0.40368971 0.23494637 0.0056425305
0.39879999 0.24485078 0.00036074989
0.40428779 0.24461812 0.0045630229
0.41070002 0.24674582 0.0087770531
0.22600003 -0.2103596 0.011050975
0.2271774 -0.20442991 0.011790328
0.23069997 -0.20130862 0.014881432
0.22792953 -0.19578908 0.011259494
0.23420212 -0.19476023 0.015725268
0.24000001 -0.19279377 0.019851115
0.22885716 -0.18907149 0.010512526
0.23494983 -0.18538465 0.014171218
0.24181935 -0.18381085 0.018842245
0.23545326 -0.1753037 0.012634062
0.24307264 -0.17480183 0.01754361
0.23700821 -0.16545838 0.011742164
0.24393833 -0.1648663 0.016640415
0.23756994 -0.15538721 0.011206025
0.24454984 -0.15498222 0.01579698
0.25065514 -0.1523903 0.019237442
0.23871425 -0.14779927 0.010617886
0.24447101 -0.14516851 0.013634441
0.25204173 -0.14467148 0.018469328
0.24515194 -0.13523746 0.012711857
0.25290334 -0.13456118 0.017406149
0.24620971 -0.12518692 0.01196131
0.25359061 -0.12497563 0.01678581
0.24756818 -0.11544628 0.011259017
0.25382319 -0.11482207 0.016222648
0.24834381 -0.10631458 0.010484871
0.25270039 -0.10508168 0.014840913
0.35386661 -0.10328473 0.017712725
0.24856003 -0.093957655 0.010867197
0.25145069 -0.097176105 0.013496088
0.34829172 -0.092476062 0.012093899
0.35268131 -0.094993249 0.016683793
0.24819998 -0.089034602 0.010734439
0.34716401 -0.085215226 0.011737898
0.3540667 -0.084719941 0.016897406
0.34763634 -0.075302042 0.011226442
0.35471135 -0.075025126 0.0162414
0.36016667 -0.072009958 0.019812012
0.34820691 -0.06567765 0.010709878
0.35460219 -0.065032378 0.0148739
0.36113343 -0.064215988 0.019187013
0.34900001 -0.057463918 0.010167209
0.35455671 -0.054947641 0.013603643
0.36174294 -0.054879714 0.018514946
0.35492587 -0.045185369 0.01269077
0.36311111 -0.044689782 0.017654417
0.35599992 -0.035442762 0.011865161
0.36438459 -0.034762248 0.016693188
0.35738891 -0.025214152 0.011254254
0.36464843 -0.025034836 0.016048023
0.37020001 -0.022201773 0.019493097
0.35840005 -0.016715256 0.010722546
0.36469877 -0.01509146 0.014010241
0.37182495 -0.014247602 0.018487599
0.36585301 -0.005445194 0.012703515
0.37290016 -0.0046013151 0.017668886
0.36714277 0.005086828 0.012039073
0.37311858 0.0048894547 0.017058343
0.36762863 0.014569838 0.011725165
0.37424177 0.015130523 0.016663386
0.36857146 0.02174082 0.010985373
0.374596 0.02514424 0.014996693
0.38000003 0.028160736 0.019115241
0.37482959 0.034780901 0.013899375
0.38075003 0.036017191 0.018556749
0.37600002 0.044507664 0.013010334
0.38197878 0.045725528 0.017479414
0.37684104 0.054962084 0.011627575
0.3836849 0.055189565 0.01671367
0.37718609 0.064721569 0.011383746
0.38428003 0.064946063 0.016438667
0.39000002 0.068808883 0.019618273
0.37769237 0.074599005 0.010765139
0.38420543 0.074945107 0.015118524
0.39088887 0.075660288 0.019305959
0.37853336 0.083853103 0.01043433
0.38417384 0.085085817 0.014020179
0.39159378 0.085068151 0.018693194
0.38457742 0.09489391 0.012910258
0.39254543 0.095070891 0.018219182
0.38582155 0.10478149 0.012348898
0.3931357 0.10519794 0.017652424
0.38702777 0.11479107 0.011530992
0.39334774 0.11495522 0.016512047
0.38787997 0.12436748 0.011118842
0.39438888 0.12495853 0.015728701
0.40000001 0.12796976 0.019180378
0.38875005 0.13168721 0.010410759
0.39445841 0.13495439 0.013863835
0.40104544 0.13611023 0.018502785
0.39557141 0.14466321 0.012894719
0.40244746 0.14546914 0.017732762
0.39686111 0.15466046 0.011901755
0.40354833 0.15520604 0.016833847
0.39765525 0.16461994 0.011521624
0.40432352 0.16502488 0.0162398
0.41 0.16830035 0.019659888
0.39818749 0.17445943 0.011015314
0.40422028 0.17475033 0.014963459
0.41131258 0.17579669 0.019179437
0.39900002 0.18067932 0.010685254
0.40394124 0.18488495 0.013101084
0.41338235 0.18527426 0.017939392
0.40527028 0.19439101 0.012430814
0.41454774 0.19551472 0.01719261
0.40755001 0.20511439 0.011538647
0.41447231 0.20524545 0.016485523
0.40750012 0.21534935 0.011689059
0.41414508 0.21472462 0.016014546
0.40786958 0.22449233 0.011591451
0.41455179 0.22480044 0.015972288
0.41999999 0.22871971 0.019151423
0.40875003 0.23269004 0.010946359
0.4143585 0.23479243 0.014180621
0.42133334 0.23605466 0.018497769
0.41502327 0.24453023 0.012348779
0.42282361 0.24523275 0.017384483
0.24231249 -0.19244626 0.021679273
0.24626622 -0.18521345 0.022789707
0.25125492 -0.18138373 0.026943704
0.24797131 -0.17627481 0.021408143
0.25363666 -0.17474213 0.026066476
0.26000002 -0.17063475 0.029592119
0.24869999 -0.16643384 0.020262133
0.25446388 -0.1654273 0.023854757
0.26115385 -0.16432196 0.02834891
0.25522062 -0.1553196 0.022501314
0.26324415 -0.15527725 0.027508395
0.25655857 -0.14513759 0.022035075
0.26308581 -0.14470746 0.026990887
0.25710833 -0.13538389 0.021345992
0.26362851 -0.13473733 0.026488727
0.25841928 -0.12606885 0.020549288
0.26319277 -0.12532139 0.025057787
0.36436358 -0.12374781 0.028305143
0.259 -0.11441483 0.020461399
0.26186466 -0.11636601 0.023248836
0.3582105 -0.11302037 0.023055531
0.36275384 -0.11512984 0.02745695
0.25858337 -0.1082212 0.020560682
0.26000002 -0.10916869 0.021641286
0.35732141 -0.1051228 0.022045329
0.36386427 -0.10474361 0.027095748
0.3577714 -0.095442697 0.021365123
0.36440915 -0.094995685 0.026011096
0.37000003 -0.093684375 0.029553844
0.35858333 -0.087438144 0.020849913
0.36439359 -0.084852912 0.024482252
0.37111115 -0.083846524 0.028804889
0.3647764 -0.075183161 0.023238074
0.3720454 -0.074699871 0.028026914
0.36614287 -0.065265745 0.022854278
0.37296358 -0.064843357 0.027620936
0.36641991 -0.055263471 0.021849995
0.37395945 -0.054852363 0.026703889
0.38000003 -0.052288532 0.029841807
0.36785719 -0.046122722 0.020689161
0.37487638 -0.044891838 0.02499502
0.38047373 -0.044627216 0.029502636
0.36900005 -0.038622845 0.020297915
0.3743605 -0.034903359 0.023648797
0.38110343 -0.03512682 0.028631365
0.37476394 -0.025228648 0.023062363
0.38221428 -0.024439285 0.027835716
0.37631375 -0.015342925 0.022180108
0.38328555 -0.014599275 0.027045187
0.37778783 -0.004882114 0.021671632
0.38379222 -0.0049602916 0.026540836
0.37804547 0.0041681989 0.021321762
0.38437027 0.0050215186 0.02583464
0.39028573 0.0068908371 0.029731482
0.37900004 0.011147588 0.020847993
0.3842839 0.014897142 0.02427729
0.39126921 0.015687902 0.029135268
0.38441029 0.024628926 0.023037225
0.39170006 0.025680361 0.027937451
0.38561663 0.034701265 0.022353815
0.39276597 0.035142578 0.027409742
0.38678056 0.04462174 0.021656709
0.39401537 0.045112919 0.026646981
0.38829413 0.05419204 0.020822357
0.39420277 0.054949168 0.025093669
0.40050003 0.056396045 0.029298654
0.38900003 0.060854509 0.020483021
0.39458984 0.064868249 0.023885399
0.40108332 0.065577976 0.028903976
0.39575475 0.074822664 0.022865903
0.40275005 0.075304784 0.027942605
0.39646658 0.08477775 0.022373082
0.40308163 0.084999934 0.027055798
0.39750007 0.09461163 0.021834135
0.40419352 0.095188268 0.026400704
0.39825004 0.10439967 0.021322053
0.40435508 0.10487104 0.025246317
0.41063643 0.10621659 0.029086627
0.39858332 0.11486018 0.020518934
0.40405458 0.11483892 0.024069086
0.41299999 0.11532415 0.028627848
0.39900002 0.12107982 0.020071002
0.40430003 0.12477648 0.022610236
0.41413894 0.12515128 0.027578596
0.40568084 0.13461028 0.022199435
0.41430002 0.13499928 0.027037472
0.40729028 0.14487588 0.021572219
0.4138096 0.14503545 0.025644995
0.42091665 0.14604957 0.028847523
0.40814281 0.15446326 0.021126164
0.4136875 0.15523219 0.024833219
0.42126313 0.15513949 0.028650237
0.40900001 0.16163622 0.020574035
0.41423532 0.1649725 0.023464927
0.42239997 0.16563989 0.028246336
0.41592497 0.17459826 0.022713676
0.42314628 0.17524689 0.027507061
0.41794744 0.18388098 0.021489996
0.42319998 0.18536694 0.026140524
0.41900003 0.19860654 0.020091446
0.42334157 0.19474287 0.024335083
0.43062502 0.19715272 0.029386267
0.41826677 0.20422627 0.020712422
0.4238525 0.20493582 0.024634279
0.43157893 0.20478065 0.029352142
0.41866672 0.21371426 0.020404002
0.4243409 0.21510102 0.023852067
0.43209097 0.21502112 0.028437126
0.42417401 0.2248468 0.022410048
0.43441939 0.22539417 0.027529158
0.4256286 0.23481661 0.022044754
0.43405268 0.23520656 0.02654385
0.44000003 0.23598857 0.029378576
0.42742857 0.24377909 0.021502843
0.43409762 0.24532688 0.02570758
0.44055554 0.24521109 0.029300669
0.25600001 -0.18035457 0.030341243
0.25817946 -0.176604 0.031082924
0.26227468 -0.17242733 0.033011582
0.26601031 -0.16557166 0.033405814
0.27146909 -0.16344893 0.037821885
0.26804236 -0.15551543 0.032079719
0.27362508 -0.15485102 0.03717716
0.26701534 -0.1454874 0.031359769
0.274048 -0.14479962 0.035999797
0.37389478 -0.142783 0.038067423
0.26879171 -0.13414253 0.030909136
0.27123824 -0.13653359 0.033451192
0.3682 -0.13225393 0.032598048
0.37225434 -0.13472787 0.037214879
0.26900002 -0.12839781 0.031143771
0.36733341 -0.12555891 0.031928282
0.37357345 -0.12481223 0.036798254
0.36772415 -0.11556047 0.031265292
0.37453082 -0.11528914 0.035744492
0.38041672 -0.1134189 0.039494529
0.36869997 -0.10719349 0.030862611
0.37444445 -0.10504223 0.034366503
0.3809655 -0.10464301 0.039065883
0.37482899 -0.095204569 0.033170566
0.38225582 -0.09437298 0.037926462
0.37567315 -0.085249692 0.031853255
0.38421205 -0.084834792 0.037084099
0.37678796 -0.075613141 0.031364765
0.38467747 -0.075259015 0.035604622
0.39030433 -0.07366503 0.039154142
0.37820002 -0.065738872 0.030768411
0.3846775 -0.065099061 0.034262203
0.3907097 -0.064639851 0.038421601
0.3849273 -0.05495337 0.032954153
0.39245459 -0.05492216 0.037746932
0.38517863 -0.044941787 0.032941736
0.39274427 -0.044910565 0.037808597
0.38599998 -0.035196621 0.0323787
0.39332065 -0.034513861 0.037423849
0.38700014 -0.025347549 0.031623729
0.39408958 -0.02492098 0.036730453
0.40000001 -0.020696722 0.039880775
0.38800004 -0.015929077 0.031117724
0.39398548 -0.015031528 0.035411458
0.40045455 -0.014938992 0.039583724
0.38900003 -0.0082318904 0.030548589
0.39416003 -0.005034321 0.033995695
0.40089998 -0.0047563487 0.038603812
0.3949483 0.0047323359 0.033058863
0.40230772 0.005550643 0.037760884
0.39640543 0.014759637 0.032344125
0.40374994 0.015215642 0.037261058
0.3965556 0.024595363 0.03143042
0.40417916 0.025070855 0.036591887
0.41000003 0.029419502 0.039913345
0.39761549 0.034360792 0.031010836
0.40472138 0.034937676 0.035524741
0.41025004 0.035832509 0.039093196
0.39875001 0.042213954 0.030376282
0.40445316 0.045058198 0.033707071
0.41133341 0.045279037 0.038391627
0.40521431 0.054727253 0.033056084
0.41197139 0.055311847 0.037893414
0.40586054 0.064624906 0.03252212
0.4140217 0.065172605 0.037496749
0.4071613 0.074388124 0.032007813
0.41434616 0.075161852 0.036522798
0.42037505 0.076147951 0.039934494
0.4081111 0.084591538 0.030716948
0.41414288 0.085083336 0.034560956
0.42137501 0.085994907 0.038543411
0.40900001 0.092365161 0.030195015
0.41401955 0.094955139 0.033057906
0.42300001 0.09525428 0.038037859
0.41491896 0.10445238 0.032115281
0.42424402 0.10516232 0.037024274
0.43000001 0.10772834 0.039837342
0.41750005 0.11393027 0.031375922
0.42461413 0.11520783 0.035845041
0.43000004 0.1150336 0.039837342
0.42568576 0.12489529 0.034273006
0.43037504 0.12591912 0.039113171
0.42547178 0.13436632 0.032781791
0.43096671 0.13561378 0.037630729
0.42629033 0.14464554 0.031702332
0.43233964 0.14523424 0.03660658
0.42696154 0.15459448 0.031369235
0.4333795 0.15513156 0.036364004
0.42777777 0.16503248 0.031079488
0.43423888 0.16496648 0.036157589
0.42828569 0.17371957 0.030971752
0.43375781 0.17511532 0.035260055
0.44011113 0.17548525 0.039738808
0.42899996 0.18366823 0.030662401
0.43428299 0.18493047 0.034462802
0.44112501 0.18548636 0.039053347
0.43542105 0.19431238 0.033285595
0.44226086 0.19588311 0.037719179
0.43654546 0.20510164 0.031904306
0.44395995 0.20533735 0.036545109
0.43717238 0.21473682 0.031923011
0.44384593 0.21509263 0.036793347
0.43828568 0.22277255 0.03058981
0.44391838 0.22519881 0.034640174
0.45116666 0.226767 0.039322514
0.44484091 0.2347752 0.033039205
0.45213044 0.23479261 0.037960175
0.44575617 0.24455705 0.032710366
0.4532904 0.24533136 0.037459429
0.36778575 -0.24872443 0.048967205
0.37 -0.24630779 0.049945079
0.27308688 -0.16197608 0.040745668
0.38411769 -0.16357082 0.048609275
0.27720267 -0.15614982 0.041561197
0.2805227 -0.15475355 0.043851987
0.37885714 -0.15143572 0.04248381
0.38195604 -0.15483987 0.04653025
0.2785385 -0.14850424 0.040775165
0.28 -0.14934608 0.042571478
0.3773531 -0.14495617 0.04199494
0.38281256 -0.14469987 0.04708067
0.37700009 -0.13558328 0.041277479
0.38425681 -0.13499817 0.046054639
0.39050004 -0.13318729 0.04938202
0.37814292 -0.12681232 0.04062466
0.38416925 -0.12494177 0.043957233
0.39180005 -0.12459804 0.048466053
0.38518843 -0.11517417 0.043311544
0.39214706 -0.1147288 0.048271157
0.38582686 -0.10535969 0.042854391
0.39338887 -0.10460835 0.047676735
0.38694441 -0.095765792 0.041438621
0.39416674 -0.094823502 0.046316322
0.38850001 -0.087726712 0.040561955
0.39427489 -0.085049771 0.044424064
0.40099999 -0.084258042 0.049099229
0.39478782 -0.075072132 0.043506846
0.40146863 -0.074924193 0.048499458
0.39551562 -0.065176979 0.042930882
0.4025611 -0.064653225 0.048015978
0.39692506 -0.055454798 0.041771494
0.40324146 -0.054811869 0.04665567
0.39735487 -0.045328245 0.041428339
0.40395102 -0.045129344 0.04618888
0.41060004 -0.042009801 0.04963037
0.39818183 -0.037162751 0.040892124
0.40438098 -0.034969278 0.044465698
0.41147828 -0.034524664 0.048980515
0.40483344 -0.025409542 0.042989682
0.41205555 -0.024603158 0.047601804
0.40546954 -0.014524717 0.042905185
0.41248718 -0.015257716 0.047548994
0.40561533 -0.0054063769 0.042300656
0.41290241 -0.0044130841 0.047379307
0.40717247 0.0041838102 0.041588966
0.41410521 0.0049860142 0.046390291
0.42025006 0.0079132356 0.049808234
0.40824997 0.013989015 0.041003972
0.41390157 0.014900143 0.044980906
0.42053333 0.015005695 0.049380764
0.40900001 0.021169912 0.040778093
0.414381 0.024982957 0.044080161
0.42124999 0.025522845 0.048564907
0.41510916 0.034989137 0.042833857
0.42212513 0.035225276 0.047892641
0.41638097 0.044874519 0.042125255
0.42334053 0.045042694 0.047320902
0.41672415 0.054748803 0.041516654
0.42394647 0.054833211 0.046500128
0.43000001 0.057659261 0.04995231
0.41788891 0.062427428 0.041009344
0.42426002 0.065050259 0.044445612
0.431375 0.066535749 0.048527751
0.42539039 0.074650899 0.043151427
0.43309084 0.075502701 0.047938883
0.42593554 0.084346734 0.041759614
0.43409804 0.085308008 0.046994906
0.42772731 0.094262272 0.040816419
0.43452248 0.095187388 0.045608815
0.42900002 0.10041381 0.040753841
0.43510386 0.10487282 0.045294508
0.43497044 0.11479273 0.04426606
0.44050002 0.11595626 0.04899618
0.4347544 0.12488564 0.043695938
0.44078946 0.1252217 0.048532598
0.43582001 0.1347955 0.042720865
0.44219348 0.13537927 0.04788268
0.43729034 0.14479639 0.041809037
0.44322911 0.14518435 0.047045153
0.43821433 0.15440723 0.040966995
0.44359654 0.15491804 0.045575958
0.45000002 0.15931486 0.049100045
0.43900001 0.16110018 0.040671147
0.44428009 0.1650379 0.043972801
0.45146668 0.16585383 0.048694734
0.44524333 0.17466673 0.043012079
0.45313799 0.1754584 0.047976524
0.44642872 0.18520203 0.041962571
0.45458829 0.1851206 0.046463437
0.4605 0.18848899 0.04916247
0.44681254 0.19444855 0.040936969
0.45423079 0.19495514 0.044472516
0.46200001 0.19538398 0.048539288
0.44875002 0.20268072 0.040518835
0.4543125 0.205313 0.043032531
0.46354541 0.20531055 0.047906335
0.45372215 0.21476099 0.04260578
0.4634324 0.2148869 0.047861725
0.4555715 0.22436164 0.042671323
0.46400008 0.22511782 0.047784369
0.45718747 0.23485675 0.041013248
0.46478727 0.23512216 0.046396933
0.45825005 0.24416082 0.04056859
0.46516988 0.24504833 0.045110319
0.47025001 0.24778895 0.049097192
0.36862502 -0.24907693 0.051168807
0.37471053 -0.24523979 0.054774433
0.38060004 -0.24258941 0.059016272
0.37837502 -0.23919828 0.055192735
0.38182858 -0.23704536 0.058011599
0.39723524 -0.18366818 0.058624592
0.38837501 -0.1715223 0.052654523
0.39334691 -0.17462137 0.056785196
0.38689789 -0.16497643 0.052118603
0.39334708 -0.16462435 0.057106413
0.3867619 -0.15526347 0.051604442
0.39408332 -0.15492074 0.056666039
0.40033332 -0.1511402 0.059689939
0.38780004 -0.14596751 0.051144782
0.39429024 -0.14499119 0.054968398
0.40115795 -0.14454587 0.058820084
0.394871 -0.13506073 0.052815523
0.40223807 -0.13453019 0.057747256
0.39653489 -0.12510407 0.052099526
0.40346435 -0.12492842 0.057266112
0.39700007 -0.11501482 0.051696107
0.40381369 -0.11514513 0.056466632
0.39818755 -0.10595319 0.051233184
0.40425003 -0.105011 0.055460494
0.41100004 -0.10199126 0.059105344
0.39900002 -0.096575677 0.05029311
0.40433881 -0.094921246 0.053455632
0.41221878 -0.094476141 0.058495797
0.40585181 -0.084956892 0.052882176
0.41251215 -0.085018419 0.058126111
0.40677279 -0.075390883 0.052585896
0.41302326 -0.074609205 0.057203915
0.40736005 -0.065521114 0.051655512
0.41430917 -0.065033995 0.056006718
0.42070001 -0.06293346 0.059560172
0.40824997 -0.056113143 0.050607167
0.41458181 -0.055005711 0.054482985
0.42094448 -0.054511294 0.058638021
0.40900001 -0.049544286 0.050399069
0.41506383 -0.045371644 0.052940443
0.42202789 -0.04433585 0.057632666
0.41656417 -0.035209164 0.052667525
0.42297679 -0.034714412 0.057425462
0.41666663 -0.025196716 0.051766936
0.4234423 -0.024743019 0.057052366
0.41716003 -0.015206771 0.051210195
0.42436072 -0.014961203 0.056345366
0.4178572 -0.0057521136 0.050789002
0.42486674 -0.0049938699 0.05526391
0.43033335 -0.0030313197 0.059101555
0.41900003 0.00098947121 0.050645705
0.42492598 0.0049297442 0.053777903
0.43141666 0.005588857 0.058490831
0.42559099 0.015020358 0.052950725
0.43283793 0.015375515 0.057964016
0.42568418 0.024644688 0.051906716
0.43294874 0.025504583 0.056725617
0.42700002 0.034696542 0.051460423
0.43374473 0.034961127 0.056106146
0.44 0.03778227 0.059394151
0.42808333 0.043642074 0.051072825
0.43412247 0.045031104 0.05496259
0.44154549 0.045472328 0.059225325
0.43458331 0.054612234 0.052876789
0.44332144 0.055463951 0.057611998
0.43596154 0.064179629 0.051713619
0.44491303 0.065185182 0.056767836
0.45000002 0.069338702 0.059685476
0.43776923 0.073872678 0.051172413
0.44495362 0.075009078 0.055106103
0.45092312 0.074948266 0.059074167
0.43900001 0.081068441 0.050997823
0.44442853 0.085438848 0.053942647
0.45105889 0.084667802 0.058329001
0.44401535 0.095085993 0.053795237
0.45076928 0.09572231 0.059054296
0.44426784 0.10495318 0.053674866
0.45135719 0.10473917 0.058728464
0.44510007 0.11486217 0.052498598
0.45355168 0.11521263 0.057733584
0.44583338 0.12459332 0.052006006
0.4547272 0.12497114 0.056883797
0.46000001 0.12444183 0.059929747
0.44710532 0.13443418 0.05155386
0.45483869 0.13496476 0.055536941
0.4612 0.13627 0.058784552
0.448625 0.14458361 0.051060636
0.45417854 0.14479946 0.053912632
0.46290478 0.14547646 0.058289226
0.44900003 0.15367988 0.050047126
0.4545455 0.15492375 0.052973434
0.46430004 0.15537952 0.057984192
0.45607138 0.16445431 0.052219007
0.4639751 0.16518366 0.057535738
0.45800003 0.17382036 0.051769719
0.46430436 0.17510644 0.056558833
0.45900002 0.18247586 0.050082047
0.46482 0.18500423 0.05418374
0.47112501 0.18674353 0.058885977
0.46659997 0.19464391 0.052671842
0.47240001 0.19547035 0.057586208
0.46795651 0.204391 0.052017819
0.47346821 0.20524742 0.057024758
0.46839994 0.21430798 0.051548976
0.47354174 0.21489273 0.056273073
0.46875 0.22494647 0.051145878
0.47453657 0.22465266 0.055244464
0.48050001 0.22794656 0.058833301
0.46900001 0.23664865 0.050290566
0.47367346 0.23529029 0.054171652
0.48119995 0.23465362 0.058844272
0.32100001 0.24956152 0.059942801
0.47381139 0.24458085 0.054023113
0.48037502 0.244084 0.059194259
0.384635 -0.24501279 0.062699772
0.39217505 -0.24496421 0.067770787
0.38636672 -0.23753409 0.062032524
0.39458638 -0.23490413 0.065802701
0.39756605 -0.22647578 0.066691466
0.40021434 -0.22284542 0.068817668
0.39900002 -0.21586855 0.0646533
0.40078956 -0.21457617 0.067252554
0.40375426 -0.20565678 0.06769143
0.40388528 -0.1942551 0.066578701
0.39883336 -0.18395956 0.060639124
0.40371773 -0.18499731 0.065626517
0.39814296 -0.17488788 0.060791548
0.40468186 -0.1752031 0.065686643
0.41000006 -0.17407954 0.069811307
0.39826673 -0.16553646 0.060506381
0.40452945 -0.16513002 0.064861253
0.4108125 -0.16403341 0.068983585
0.39900002 -0.15814619 0.060429722
0.40487042 -0.1550829 0.063160241
0.41286841 -0.1547951 0.068028785
0.40642509 -0.14487854 0.062108524
0.41300002 -0.14503263 0.066860914
0.40714285 -0.13512804 0.061719969
0.4137817 -0.13479596 0.066569664
0.42050004 -0.1305633 0.069620855
0.4082 -0.12651871 0.06124755
0.41432688 -0.12481841 0.064747289
0.42093751 -0.12457335 0.068765886
0.40900001 -0.11544801 0.060020056
0.41452831 -0.11506327 0.063489966
0.42226931 -0.11433446 0.068196416
0.41507316 -0.10542189 0.062154908
0.42395747 -0.1050588 0.067336589
0.41750014 -0.094929338 0.06225194
0.42371708 -0.094970822 0.067189984
0.41728568 -0.085134566 0.061751246
0.42384002 -0.085093349 0.066114485
0.42999998 -0.081421524 0.069170743
0.41756248 -0.076361448 0.060663223
0.42420751 -0.074879199 0.064633965
0.4307501 -0.07421653 0.068912074
0.42530367 -0.065250881 0.063564107
0.43200001 -0.064634502 0.068591624
0.42597735 -0.055199191 0.062426392
0.43277776 -0.054740217 0.067359827
0.42676473 -0.045523249 0.0618627
0.43402141 -0.044688333 0.066893838
0.42768183 -0.035571083 0.06139103
0.43448007 -0.034906708 0.066016957
0.44000003 -0.034151614 0.069744349
0.42839998 -0.025186565 0.060851503
0.43467242 -0.025041683 0.065333553
0.44080004 -0.024879707 0.06987115
0.43406901 -0.015240771 0.06370987
0.44085717 -0.014289134 0.068473354
0.43461707 -0.0054644202 0.062655933
0.44303039 -0.0046818885 0.067923836
0.4363226 0.0047251103 0.062079601
0.44395247 0.0051249643 0.066947162
0.43760005 0.014314896 0.061541382
0.4443478 0.015045571 0.065967247
0.45033336 0.018543148 0.06926363
0.43809092 0.023005735 0.060448397
0.4444131 0.024888562 0.064158306
0.45200002 0.025820842 0.068871647
0.44558337 0.034241784 0.0624239
0.45430553 0.035304002 0.067001484
0.46000001 0.03949964 0.069668345
0.44594124 0.044589859 0.061493501
0.45506448 0.044597331 0.065647341
0.4609333 0.045652527 0.069087543
0.44827273 0.054504648 0.060702894
0.45468298 0.055524781 0.064463705
0.46133333 0.054371316 0.06849622
0.44900003 0.061263189 0.060609031
0.45430776 0.065131851 0.064110011
0.46094733 0.064804532 0.069242314
0.45616671 0.074732877 0.063218415
0.46137509 0.075613961 0.067843504
0.45632264 0.084749416 0.06184388
0.46302441 0.085160643 0.067024618
0.4559643 0.094968818 0.061975155
0.46430233 0.094757073 0.067204483
0.4564375 0.10492219 0.062154472
0.46434227 0.10514474 0.067459248
0.45800003 0.11259031 0.061345603
0.46471429 0.11517388 0.065707996
0.47000003 0.11940797 0.068971701
0.46630907 0.12563741 0.064532593
0.4702 0.12410365 0.068669371
0.46709615 0.1339442 0.064265877
0.47011125 0.13756016 0.067329489
0.46766666 0.14371562 0.0615899
0.47140387 0.14546345 0.066302687
0.46900001 0.15059617 0.061102286
0.47311482 0.15501955 0.065278187
0.46900004 0.16604148 0.061102279
0.47483346 0.1644738 0.065317251
0.48025003 0.167201 0.069346167
0.47457901 0.17465204 0.063806437
0.48133332 0.17525354 0.068686217
0.47544825 0.18452203 0.062410496
0.48242304 0.18532786 0.067219056
0.47742864 0.19381487 0.061720174
0.48435295 0.19526537 0.066261038
0.49050003 0.19846074 0.069672413
0.47900003 0.20451139 0.061278351
0.48465723 0.20539047 0.064810462
0.49110001 0.20470922 0.06883388
0.47870007 0.21474104 0.060902648
0.48417139 0.21513867 0.064681172
0.49087501 0.21477686 0.068570986
0.47900003 0.22028603 0.060151596
0.48447227 0.22450893 0.063410655
0.49178576 0.2262485 0.068038873
0.48611119 0.23498739 0.062318753
0.49337029 0.23565714 0.067249767
0.3206667 0.2493012 0.061011631
0.48546144 0.24481896 0.062064901
0.49390629 0.24456429 0.067258179
0.39712507 -0.24503422 0.071299344
0.40401593 -0.2446135 0.076224208
0.39854544 -0.23714013 0.070844091
0.40417823 -0.2349188 0.074874908
0.41064289 -0.23361826 0.07937371
0.40479183 -0.22508785 0.07361614
0.41104546 -0.2246253 0.078516789
0.40566674 -0.21512519 0.072993375
0.41246879 -0.21475023 0.078057237
0.40699995 -0.20504023 0.072586261
0.4124147 -0.20482008 0.077491298
0.40728265 -0.19498061 0.07210087
0.41349998 -0.19463566 0.077166311
0.42000002 -0.19018105 0.07941781
0.40807146 -0.18745072 0.070923552
0.41416395 -0.18513459 0.07431408
0.42157146 -0.18498784 0.078677133
0.41493616 -0.17529784 0.073359407
0.42189288 -0.1744498 0.077970408
0.41559571 -0.16515397 0.072536997
0.42325002 -0.1643551 0.077503331
0.41759098 -0.15546487 0.071417332
0.42401683 -0.15500565 0.075997606
0.42999998 -0.15121479 0.079285711
0.41785723 -0.14560984 0.070377417
0.42440006 -0.14497432 0.074614853
0.4313333 -0.14418241 0.079137824
0.41859999 -0.13735764 0.07029096
0.4250001 -0.13481261 0.073593013
0.43134627 -0.13517945 0.078365102
0.42604086 -0.12501055 0.072773784
0.43193543 -0.12478535 0.077645838
0.42662159 -0.11557314 0.071830682
0.43291661 -0.11468399 0.076838695
0.42899996 -0.10494707 0.071028173
0.43371221 -0.10550672 0.075560197
0.44000003 -0.1014279 0.079059526
0.42899996 -0.096369341 0.071028173
0.43437266 -0.094988048 0.074631907
0.44078574 -0.094496362 0.078904815
0.42900002 -0.088296197 0.070019029
0.43463266 -0.085111327 0.073179886
0.44212902 -0.084554546 0.078371234
0.43566671 -0.07518474 0.072610207
0.44267642 -0.075090744 0.077584274
0.43696159 -0.065459318 0.072111197
0.44420463 -0.064917415 0.076806515
0.45000002 -0.061391361 0.079797797
0.43766671 -0.055415727 0.07074777
0.44438305 -0.054961987 0.075030588
0.45044449 -0.054800421 0.079052776
0.43900001 -0.048531339 0.070618503
0.44460008 -0.045049153 0.073934577
0.45100001 -0.04444737 0.078490816
0.44542548 -0.035093471 0.073733956
0.4515714 -0.03482018 0.078408308
0.44550005 -0.025319587 0.073066682
0.45313337 -0.02472215 0.078012869
0.44587511 -0.015363228 0.071990982
0.4537105 -0.014598062 0.076894611
0.44800001 -0.0062742191 0.071337223
0.45485711 -0.0049137333 0.07552214
0.46100003 -0.0029767384 0.079173498
0.44900003 0.0068693655 0.070114747
0.45472974 0.0047051585 0.0737634
0.46252945 0.0051607382 0.078244977
0.45479545 0.014716404 0.07287579
0.46252173 0.015115744 0.077858232
0.45670363 0.024697043 0.072474994
0.46333334 0.025226392 0.077202566
0.45790914 0.032760985 0.071017325
0.46403632 0.035337102 0.075431362
0.46588463 0.044747494 0.074256308
0.47069997 0.047284618 0.078486525
0.46643171 0.054861329 0.072893292
0.47118518 0.054869611 0.078014642
0.46640539 0.064865991 0.073400974
0.47181487 0.064931922 0.078119598
0.46608105 0.074779481 0.072579928
0.4729355 0.075313598 0.077912182
0.46768752 0.083687775 0.071589939
0.47345239 0.085496746 0.076061681
0.47452459 0.094964527 0.075212076
0.47477999 0.1043349 0.074666582
0.48055553 0.10745816 0.078936517
0.47490391 0.11562562 0.074171692
0.48076472 0.11332685 0.07880111
0.46900001 0.12963466 0.079305701
0.47289124 0.1252664 0.074963234
0.46869087 0.1342396 0.076595858
0.4701483 0.13671118 0.072556779
0.46900001 0.14066704 0.079305701
0.47291055 0.14490253 0.074727885
0.47727782 0.15328866 0.074220099
0.48170003 0.15762171 0.07641302
0.48465917 0.16466671 0.074189618
0.49087501 0.1678696 0.078386329
0.48604158 0.17455226 0.072663382
0.49276924 0.17508191 0.077443913
0.48712501 0.18420611 0.07105606
0.49417236 0.18528821 0.075533897
0.5 0.18799399 0.078470834
0.48900002 0.19152668 0.070609637
0.49467641 0.19511653 0.073935829
0.5 0.19113041 0.078078777
0.49579406 0.20499073 0.07262513
0.5 0.20457222 0.076398551
0.49592006 0.21485838 0.071660019
0.5 0.21347742 0.074550301
0.49633333 0.22427042 0.07098911
0.5 0.22347477 0.073080108
0.49850002 0.23101336 0.070808761
0.5 0.23582444 0.071021825
0.5 0.24523371 0.071021825
0.40900001 -0.24869858 0.080224112
0.41427779 -0.24496625 0.083270997
0.42152005 -0.24520379 0.088313483
0.41525009 -0.23525302 0.083002739
0.42313522 -0.23444104 0.087977208
0.41585717 -0.2253619 0.081824109
0.42424491 -0.22473827 0.086643249
0.4176819 -0.21516412 0.081436999
0.42441666 -0.21513577 0.086147673
0.41799998 -0.20500655 0.081498958
0.4245472 -0.2050647 0.086127371
0.43050003 -0.20151675 0.089504637
0.418125 -0.19670624 0.080784276
0.42466074 -0.19492114 0.083963327
0.43222225 -0.19386107 0.088207275
0.42648393 -0.18537812 0.081876546
0.43345448 -0.18509759 0.086602874
0.42716008 -0.17473099 0.081577681
0.43355551 -0.175234 0.086294658
0.42780003 -0.16620152 0.081161499
0.43393445 -0.16482224 0.085609704
0.44033337 -0.16106267 0.089477472
0.42900002 -0.156918 0.080110468
0.43470174 -0.15528288 0.08376766
0.44126314 -0.15462704 0.088410765
0.43591672 -0.14568506 0.082687877
0.4421843 -0.1446825 0.087475933
0.43659374 -0.13511147 0.082206048
0.4437443 -0.13480164 0.087336943
0.4367778 -0.12535872 0.081413016
0.44431826 -0.12500659 0.086328179
0.45000002 -0.12066977 0.089324676
0.43808338 -0.11592596 0.080948271
0.44445652 -0.11513234 0.085005276
0.45128575 -0.11403555 0.089277275
0.43900001 -0.10997506 0.080945179
0.44481632 -0.10495424 0.08326488
0.45195001 -0.10476403 0.088065125
0.44535911 -0.094935298 0.082633696
0.4524138 -0.094873108 0.08771538
0.44680011 -0.085405499 0.082421117
0.45379487 -0.084772512 0.087374792
0.44776189 -0.075103201 0.081408225
0.45414892 -0.074828789 0.086110674
0.44900003 -0.068120174 0.080676652
0.45479596 -0.065196201 0.084171779
0.46122223 -0.063883804 0.088780612
0.45564449 -0.05497925 0.083045878
0.46196297 -0.054872938 0.088442326
0.45539579 -0.044985887 0.082903571
0.46187499 -0.045492277 0.088289328
0.45597067 -0.035450879 0.082312286
0.46363643 -0.034475584 0.08744248
0.45784613 -0.026130227 0.081520997
0.46425 -0.02493781 0.085783489
0.47000003 -0.023765853 0.089425102
0.45866671 -0.015639091 0.080525637
0.46457142 -0.014670553 0.084628254
0.47120005 -0.014514881 0.088988654
0.46517137 -0.0055091889 0.082993932
0.47255996 -0.0044175452 0.087713987
0.4668 0.0039226236 0.081094697
0.47416672 0.0053502447 0.086090624
0.46725002 0.015322146 0.081140384
0.47408518 0.014892327 0.086166181
0.46772727 0.023062462 0.081141382
0.47430444 0.02518101 0.085524343
0.48040003 0.027691195 0.089482963
0.47409305 0.035080537 0.083223641
0.48164281 0.035615411 0.088323332
0.47481084 0.044847615 0.082634307
0.48268002 0.045173034 0.087958001
0.4759655 0.054806203 0.082360022
0.48364285 0.054977685 0.087394357
0.47684214 0.06444253 0.082021251
0.48428127 0.065362096 0.08659599
0.4780001 0.073912591 0.08173646
0.48461774 0.075103551 0.085911222
0.49050003 0.077311076 0.089287214
0.47830003 0.083715037 0.080541082
0.48400009 0.085250296 0.084388755
0.49107149 0.085733309 0.08897958
0.48385453 0.095640287 0.084343605
0.49088892 0.092959225 0.08897379
0.47875005 0.10896111 0.089118987
0.482079 0.1048508 0.085263349
0.46675003 0.11844055 0.089217216
0.47651929 0.11638104 0.086431794
0.48102444 0.11338866 0.083476365
0.45850003 0.12870874 0.089213967
0.46470693 0.12584516 0.086442798
0.47340429 0.1233286 0.082545452
0.45528847 0.13574059 0.087937936
0.46528792 0.13450933 0.083724782
0.44782615 0.14722925 0.088296592
0.45280483 0.14328484 0.0865734
0.46578795 0.14354987 0.083518252
0.47162506 0.14658888 0.081552051
0.47641671 0.15213867 0.08241944
0.4825294 0.1575467 0.083294533
0.48686665 0.16198532 0.083280586
0.49229413 0.16686696 0.083480351
0.49731252 0.17328814 0.08285214
0.5 0.1754483 0.084155597
0.49900001 0.1801839 0.080270238
0.5 0.18172114 0.080431096
0.42657137 -0.24504493 0.092074655
0.43308696 -0.24497712 0.097046383
0.42761108 -0.23625904 0.091307558
0.43395081 -0.23487671 0.095837392
0.44050002 -0.23210269 0.099873289
0.42900002 -0.22856726 0.090201914
0.43396604 -0.22532114 0.093781829
0.44209522 -0.22409599 0.098701045
0.43400002 -0.21495765 0.092829973
0.44213629 -0.21518616 0.09769363
0.43471044 -0.20525305 0.092619747
0.44260713 -0.2041318 0.097341739
0.43661547 -0.19607781 0.091646723
0.44421574 -0.19484764 0.096154504
0.45000002 -0.19265068 0.099380828
0.4385455 -0.18507184 0.090239644
0.44461235 -0.18496554 0.094582357
0.45022222 -0.18480103 0.098900378
0.43900007 -0.17503312 0.090239182
0.44454172 -0.17488204 0.094460011
0.45120001 -0.17511934 0.099115171
0.43900004 -0.16780443 0.09023919
0.44454545 -0.1649729 0.093453951
0.45229629 -0.16468598 0.098333865
0.44614288 -0.15529858 0.092101038
0.4527714 -0.15465553 0.097030111
0.4473078 -0.14544043 0.091786943
0.45375562 -0.14461677 0.096742906
0.44862506 -0.13665658 0.091162361
0.45461231 -0.13528974 0.095072597
0.4608182 -0.13307677 0.098863266
0.44900003 -0.12885115 0.090182371
0.4548572 -0.12517469 0.093226075
0.46244004 -0.12463334 0.09845379
0.45626673 -0.11547522 0.092754714
0.46254843 -0.11510084 0.097329661
0.45657697 -0.10549477 0.091541611
0.46379545 -0.10477464 0.096731849
0.45753327 -0.095889218 0.091251612
0.46470731 -0.094976775 0.095825389
0.47000003 -0.094523571 0.099375412
0.45885721 -0.086884692 0.091082819
0.46441466 -0.084766589 0.094671637
0.47000006 -0.084573276 0.098822609
0.45900002 -0.076655462 0.09003146
0.46474004 -0.074812584 0.09400963
0.47108337 -0.073960483 0.098773807
0.4658857 -0.065417781 0.09298332
0.47237501 -0.064767368 0.097612031
0.46690482 -0.055457372 0.09231621
0.47421879 -0.055105191 0.096892238
0.48000002 -0.053063881 0.099796109
0.46700004 -0.044721838 0.091366582
0.47467855 -0.045016021 0.095385745
0.48137498 -0.044153728 0.098949634
0.46820003 -0.036888745 0.090734646
0.47475675 -0.03508408 0.094367996
0.48141667 -0.034156032 0.098675914
0.47508574 -0.025108173 0.09306553
0.48243472 -0.024885543 0.098134086
0.47580773 -0.015275246 0.092169538
0.48318192 -0.015544346 0.097327918
0.47727787 -0.0050455835 0.091434561
0.48402506 -0.0048331823 0.096370429
0.47875002 0.0042288676 0.090808541
0.48414001 0.0052422844 0.095656462
0.49000001 0.0098019056 0.099569924
0.47900006 0.013525524 0.090574123
0.48404649 0.01516284 0.094529986
0.49079999 0.015708348 0.099501945
0.4850589 0.024403179 0.093639463
0.49158826 0.025958404 0.098057441
0.48630437 0.034202725 0.091808937
0.49357575 0.035135835 0.096854381
0.48766667 0.044299804 0.091193557
0.49507698 0.044900768 0.095921516
0.5 0.048815187 0.099249639
0.48900002 0.053492673 0.090739593
0.49486494 0.054982159 0.094243899
0.5 0.053911876 0.098465532
0.4954167 0.064972728 0.093200028
0.5 0.062929086 0.096897326
0.49515378 0.074951746 0.092557788
0.5 0.074690685 0.095721163
0.4962 0.08450935 0.092428967
0.5 0.087628424 0.094545007
0.48866668 0.099052757 0.091252483
0.49447826 0.096386276 0.094185784
0.5 0.093901277 0.095721163
0.45614287 0.10921777 0.099125966
0.46485716 0.10887896 0.098201819
0.47642219 0.10757075 0.094909869
0.48393881 0.10266855 0.094459124
0.491 0.10048729 0.099194452
0.44900006 0.11671321 0.099688098
0.45426866 0.11522253 0.096905261
0.46388677 0.11456429 0.093103878
0.47300002 0.11170297 0.091891937
0.44800004 0.12630795 0.099314675
0.45450011 0.12528013 0.094889134
0.46135712 0.12255739 0.091190919
0.43850005 0.13710631 0.098989554
0.44460005 0.13501598 0.097541481
0.4517726 0.13428658 0.093344629
0.4375 0.14639474 0.09919145
0.44524997 0.1453878 0.094979607
0.45008329 0.14143382 0.091723144
0.43614286 0.15184125 0.098368727
0.44365218 0.15134679 0.094679758
0.43811774 -0.245489 0.10109199
0.4441092 -0.24477406 0.10550521
0.45116666 -0.24302889 0.10918989
0.43866667 -0.23887618 0.1004895
0.44489363 -0.23493099 0.1035483
0.45177272 -0.23407926 0.10817881
0.44700006 -0.2258302 0.10246146
0.45282051 -0.22478557 0.10717796
0.44765392 -0.21513654 0.10141627
0.45413041 -0.21472768 0.10647792
0.4605 -0.21122745 0.10982404
0.44781253 -0.20553562 0.1008076
0.45492491 -0.20488846 0.10502287
0.46066666 -0.20425849 0.10878017
0.45482606 -0.19505748 0.1035716
0.46144444 -0.19434972 0.10848249
0.45527491 -0.18545258 0.10269386
0.4624286 -0.18491666 0.10768399
0.45567864 -0.17509256 0.10216994
0.46303222 -0.17463221 0.10702416
0.45736846 -0.16542339 0.10183068
0.46395242 -0.16478528 0.10665283
0.45783341 -0.15555581 0.10105193
0.46447819 -0.15513976 0.10598331
0.47000003 -0.15422541 0.10987851
0.45880002 -0.14731158 0.10078466
0.46433327 -0.14502995 0.10446054
0.47080001 -0.14418522 0.10884751
0.46518186 -0.13527761 0.10303783
0.47212502 -0.13492762 0.10824859
0.46711999 -0.12558697 0.10239458
0.47311422 -0.12471423 0.10695434
0.46747375 -0.11508136 0.10124458
0.47448838 -0.11502089 0.10629057
0.48000002 -0.11234229 0.10995812
0.4684 -0.10742229 0.10068984
0.47451165 -0.10508408 0.10453026
0.4808 -0.1035919 0.10878457
0.47490001 -0.095059976 0.10310004
0.48243478 -0.094701424 0.10849514
0.47496971 -0.085263945 0.10251458
0.48309097 -0.084599666 0.10757001
0.47556525 -0.075548492 0.1019409
0.48444003 -0.074909203 0.10660425
0.49000001 -0.073572077 0.10917523
0.47780004 -0.064845249 0.1008002
0.48437038 -0.065002024 0.10450845
0.49166667 -0.064646192 0.10869967
0.48479411 -0.055234164 0.10328147
0.49172726 -0.054414 0.10828263
0.48594448 -0.045146968 0.10275114
0.49217394 -0.045220736 0.10801771
0.48607153 -0.035317603 0.10232781
0.49303997 -0.034669951 0.10710415
0.48750004 -0.024647616 0.10193004
0.49455547 -0.025003796 0.10690131
0.48783335 -0.014146473 0.10104267
0.4942058 -0.015312749 0.10583518
0.5 -0.014697391 0.10983507
0.48842859 -0.0063126613 0.10039954
0.49416679 -0.0053102686 0.10463303
0.5 -0.0029358028 0.10865891
0.49445951 0.0048938352 0.10350203
0.5 0.0041211504 0.10748275
0.49559087 0.014844847 0.10293505
0.5 0.014236117 0.10583613
0.49647829 0.024609959 0.10185375
0.5 0.025880089 0.10424832
0.4984445 0.034725577 0.10102529
0.5 0.035289358 0.10219003
0.5 0.041758236 0.1004258
0.45734996 0.098118968 0.1064903
0.49766669 0.099315114 0.10073733
0.5 0.098213859 0.10042579
0.45432562 0.10570923 0.10515622
0.46412504 0.10480943 0.10188251
0.47475001 0.10525579 0.10158481
0.48299998 0.10327307 0.10166609
0.49450001 0.10062044 0.10203726
0.5 0.10056618 0.10395428
0.44764942 0.11555073 0.10446163
0.45073679 0.11119213 0.10638039
0.44427443 0.12504528 0.10455484
0.42900002 0.13876128 0.10937566
0.43546006 0.1360231 0.10482249
0.44092593 0.13178383 0.10627095
0.42899999 0.14219239 0.10917382
0.43257141 0.14478537 0.10457193
0.43225002 0.15194048 0.10551131
0.44900003 -0.24978498 0.11025
0.45530769 -0.24500166 0.1120489
0.46327585 -0.24494717 0.11729236
0.45644838 -0.23526211 0.11193328
0.46381578 -0.23478673 0.11687899
0.47000003 -0.23106387 0.11982881
0.4581539 -0.22536342 0.11108883
0.46422222 -0.22524302 0.11490411
0.47176933 -0.22377372 0.11891481
0.45900002 -0.21863784 0.11054602
0.46444443 -0.21509339 0.1131976
0.47231579 -0.21509658 0.11796541
0.46554297 -0.20532455 0.11243962
0.47275004 -0.20474905 0.11738235
0.46637034 -0.19500285 0.11220212
0.47418177 -0.19503526 0.11714818
0.46759999 -0.1848211 0.111225
0.475077 -0.18488237 0.11603025
0.46789998 -0.17499793 0.11048822
0.47439995 -0.17474414 0.1157845
0.46860003 -0.16699214 0.1106535
0.47460002 -0.16480818 0.11571138
0.47435713 -0.15531413 0.1144741
0.47613856 -0.14494646 0.11483902
0.47671431 -0.13633586 0.11298946
0.48300001 -0.13269754 0.11672692
0.47790912 -0.12666911 0.11091042
0.48445103 -0.12508857 0.11576872
0.49000001 -0.12102225 0.11916473
0.48495013 -0.11532301 0.1140366
0.49125007 -0.11446882 0.11867525
0.48533335 -0.10547952 0.11251631
0.49329627 -0.10435914 0.11769239
0.48693332 -0.095634021 0.11192904
0.49386665 -0.094904043 0.11619922
0.5 -0.091735795 0.11924434
0.48742861 -0.087379098 0.11067759
0.49520582 -0.084855847 0.11457889
0.5 -0.084678844 0.11806818
0.49586487 -0.074945353 0.11337842
0.5 -0.074093416 0.11689202
0.49681824 -0.065246262 0.11317704
0.5 -0.065742686 0.11642156
0.49628001 -0.055072378 0.11247608
0.5 -0.055862952 0.11571586
0.49716669 -0.045344129 0.11181302
0.5 -0.045865603 0.11395162
0.49816668 -0.036319327 0.11060419
0.5 -0.035280172 0.11159931
0.5 -0.028223217 0.11101123
0.45880002 0.09853857 0.11071379
0.4631035 0.097276509 0.11484955
0.45656261 0.10656653 0.11347128
0.46350002 0.10405383 0.11708505
0.44701263 0.1166671 0.11547633
0.45128953 0.11166234 0.1145828
0.4347671 0.12661478 0.11691732
0.44300005 0.12396385 0.11347111
0.42852521 0.13565841 0.11516486
0.43325648 0.13247111 0.11277353
0.44080001 0.13096371 0.11072481
0.42895561 0.14424096 0.11411817
0.43000016 0.14620337 0.11615763
0.42851847 0.1523052 0.11690446
0.43000004 0.15109627 0.11152716
0.46811116 -0.24499968 0.1209387
0.47453851 -0.24547911 0.12451124
0.4817692 -0.24438755 0.12823525
0.46900001 -0.23939814 0.12067709
0.47434479 -0.23490362 0.12309532
0.48275009 -0.23448344 0.12795554
0.47585714 -0.22649647 0.12191065
0.48415801 -0.22492047 0.12668024
0.47772229 -0.21463135 0.12129971
0.48513901 -0.21482223 0.1265472
0.47780004 -0.20544894 0.12080619
0.48445949 -0.20491596 0.12521638
0.49045449 -0.20425206 0.12944902
0.47900003 -0.19943216 0.12099664
0.4847073 -0.19447282 0.1239773
0.49033338 -0.19573146 0.12908867
0.48496631 -0.18490779 0.12473944
0.48467928 -0.17486919 0.12536775
0.48362261 -0.16519798 0.12541492
0.4828572 -0.15893194 0.12554312
0.48800004 -0.13085967 0.12097421
0.48850003 -0.12582217 0.12109815
0.49100003 -0.12197193 0.12171894
0.49569237 -0.11543888 0.12324339
0.5 -0.11349474 0.12630129
0.49755558 -0.10708547 0.12139294
0.5 -0.10526162 0.12247878
0.49900001 -0.098595172 0.12017966
0.5 -0.097028509 0.1204205
0.46875 0.098140948 0.12061276
0.47171432 0.098841675 0.12407561
0.45541993 0.10740726 0.12604585
0.46552178 0.10540806 0.12505548
0.47134218 0.10279442 0.12559915
0.43900001 0.11927713 0.12948056
0.44493189 0.11654088 0.12472951
0.45103031 0.11132345 0.12528065
0.4349913 0.12467775 0.12487875
0.44000003 0.12058385 0.12046032
0.42876917 0.13899662 0.12731585
0.4306353 0.13455512 0.12495492
0.42709488 0.14504732 0.12586838
0.43000001 0.14423417 0.12144675
0.42749318 0.15399072 0.1249566
0.43000001 0.15855604 0.12960768
0.43000001 0.16032617 0.12986055
0.48673338 -0.24634944 0.13134804
0.49325582 -0.24471806 0.13650328
0.4874 -0.23502806 0.13114414
0.49334154 -0.23501889 0.13609082
0.4886364 -0.22523026 0.1306411
0.494091 -0.22501759 0.13538247
0.48900002 -0.21797422 0.13042437
0.49401894 -0.21487755 0.13473336
0.49430773 -0.20486096 0.13468844
0.49366006 -0.19501756 0.13504176
0.48805138 -0.18263976 0.13422908
0.49051994 -0.18777514 0.13470912
0.48552364 -0.17481804 0.13490726
0.48489836 -0.16545299 0.13413921
0.48500001 -0.15914749 0.13163926
0.45454997 0.098907433 0.13523285
0.46520001 0.099473916 0.1319516
0.44690913 0.10837518 0.1382577
0.4523333 0.10444816 0.13402787
0.4634445 0.1010827 0.13050683
0.47050002 0.1001666 0.13046998
0.42825001 0.11887215 0.13965638
0.43590474 0.11717543 0.13693854
0.44425347 0.11445579 0.13496391
0.45113787 0.11221688 0.13254654
0.42700011 0.12505549 0.13949999
0.43384966 0.12490643 0.13500091
0.40692595 0.13767937 0.13852495
0.41389289 0.13637273 0.13855234
0.42627776 0.13656646 0.1381949
0.43193793 0.13451977 0.1347786
0.40538973 0.14526315 0.13731794
0.41411114 0.14450866 0.13584596
0.42626083 0.14477687 0.13480277
0.43000004 0.14052974 0.13520703
0.39900002 0.1586228 0.13926999
0.40402204 0.15465872 0.13728072
0.41390482 0.15460072 0.1348244
0.42664286 0.15340579 0.13430642
0.43056002 0.15733564 0.13355401
0.42900002 0.16096248 0.13561341
0.43223083 0.1614715 0.13327198
0.45900002 -0.24994956 0.14941573
0.46284208 -0.2488268 0.14820008
0.49786669 -0.24573517 0.14137803
0.5 -0.24472046 0.14310357
0.49900001 -0.23440459 0.1406039
0.5 -0.23581524 0.14159136
