# .PCD v0.7 - Point Cloud Data file format
VERSION 0.7
FIELDS x y z
SIZE 4 4 4
TYPE F F F
COUNT 1 1 1
WIDTH 1353
HEIGHT 1
VIEWPOINT 0 0 0 1 0 0 0
POINTS 1353
DATA ascii
0.20464513 0.0050728135 -0.078685552
0.21382353 0.0049150949 -0.077104189
0.22420438 0.0055209417 -0.075433783
0.23365894 0.0047410643 -0.074014515
0.24608393 0.005193369 -0.072714575
0.25424674 0.0037531687 -0.071083672
0.2615898 0.0051141116 -0.070382446
0.19721253 0.01429116 -0.079475075
0.20401917 0.015668765 -0.078459084
0.21464184 0.014676691 -0.076948211
0.22376986 0.014633651 -0.075290315
0.23580009 0.015243988 -0.074290171
0.24516997 0.015289434 -0.071912251
0.25291306 0.017644146 -0.070481077
0.26240003 0.014624183 -0.070247725
0.27150002 0.011338021 -0.070243962
0.19620828 0.025441971 -0.079455748
0.20393895 0.02392989 -0.07866998
0.21496248 0.025315158 -0.077169135
0.22404005 0.024563728 -0.074912183
0.23535793 0.024281684 -0.074452102
0.24423763 0.025115959 -0.072377808
0.25166664 0.024344437 -0.070600159
0.19562593 0.035770785 -0.079459459
0.20464055 0.035551552 -0.078918085
0.21510853 0.034921002 -0.07715144
0.22351944 0.034647379 -0.074790217
0.23415311 0.035383977 -0.074175589
0.24524558 0.034969404 -0.07247173
0.25235 0.035485446 -0.07034573
0.26389286 0.037978206 -0.07052321
0.19648288 0.045463685 -0.0792372
0.20563367 0.044151179 -0.07885886
0.21378505 0.044806033 -0.076876827
0.22633336 0.047724832 -0.076457404
0.23333719 0.045176789 -0.07518287
0.24445935 0.044980064 -0.072556704
0.25183928 0.044857085 -0.070611693
0.26250002 0.040548336 -0.070152134
0.19500852 0.054806937 -0.079556733
0.203144 0.056057751 -0.078762695
0.21429661 0.054828525 -0.077333406
0.22390576 0.055261794 -0.075265564
0.23458423 0.054891039 -0.074016146
0.24440283 0.054508891 -0.072086677
0.25319284 0.055438463 -0.070520893
0.2606667 0.057030428 -0.070073426
0.19528168 0.064403646 -0.079631805
0.20498098 0.064819641 -0.078699991
0.2151546 0.064717069 -0.076933272
0.22614551 0.064588524 -0.075752415
0.23465802 0.065494761 -0.07461682
0.24436688 0.064830795 -0.072148554
0.25459319 0.064345993 -0.071055733
0.26182503 0.066352084 -0.070712358
0.19731249 0.072964415 -0.079610579
0.20587708 0.075516991 -0.079042435
0.21457049 0.075162716 -0.076934047
0.22469415 0.075095534 -0.075369149
0.23516831 0.075853132 -0.074514963
0.24381298 0.074544221 -0.072383538
0.25365385 0.075512283 -0.07067246
0.26186284 0.074331433 -0.070599422
0.19842105 0.086417697 -0.079829797
0.20462976 0.084914468 -0.078864418
0.2144569 0.084862798 -0.076796763
0.2232696 0.085105561 -0.075353727
0.23492751 0.08545538 -0.074431904
0.24510571 0.08542718 -0.072723918
0.25199991 0.0847077 -0.070930608
0.2611765 0.082779229 -0.07008975
0.19783098 0.094297163 -0.079714276
0.20451839 0.095042385 -0.078751653
0.21350272 0.094875276 -0.076852277
0.224472 0.095482908 -0.075401403
0.23476198 0.095007718 -0.074389338
0.24348783 0.094787836 -0.072297752
0.25324246 0.095857993 -0.070824422
0.26445457 0.098188072 -0.070389338
0.27146155 0.098415606 -0.070634298
0.19676197 0.10614504 -0.079480425
0.20500006 0.10477319 -0.078858852
0.21317384 0.10510738 -0.076946974
0.22472151 0.10522925 -0.075825967
0.23427148 0.10545142 -0.074057572
0.24368201 0.10456352 -0.0724563
0.25443229 0.10498579 -0.070985258
0.26423079 0.1012774 -0.070275694
0.27109095 0.10090068 -0.070537508
0.1957794 0.11439721 -0.07967788
0.20411164 0.11507069 -0.078991577
0.21430685 0.11530662 -0.077365607
0.22397429 0.11495597 -0.075518496
0.23449293 0.11495061 -0.074131332
0.2441 0.11567612 -0.072514385
0.25349998 0.11492008 -0.071092524
0.26100004 0.11972244 -0.070060574
0.19826089 0.12846303 -0.079791673
0.20311286 0.12512407 -0.079191409
0.21387999 0.12525395 -0.077646494
0.22386217 0.1254096 -0.075523809
0.23389709 0.12257665 -0.073868036
0.24589084 0.12466186 -0.072725385
0.25458109 0.12579474 -0.071304522
0.26417866 0.12673841 -0.070596181
0.1885 0.13605529 -0.079716556
0.19602743 0.13614231 -0.076362021
0.20419887 0.13592874 -0.075944029
0.21354908 0.13436896 -0.077033073
0.22330548 0.13555852 -0.074663371
0.23650929 0.13631709 -0.074127026
0.2437806 0.13445662 -0.072323069
0.25539207 0.1347284 -0.071128614
0.2608 0.13248107 -0.070313506
0.22683334 0.14022513 -0.072338335
0.23534489 0.14069061 -0.071495011
0.25447622 0.14094089 -0.07085897
0.32200003 -0.31168622 -0.060304433
0.31700003 -0.30619532 -0.060484491
0.32109529 -0.30487654 -0.060458034
0.29900002 -0.29153293 -0.063733749
0.30252504 -0.29290545 -0.061812412
0.31629631 -0.29384315 -0.060939591
0.32100007 -0.29469651 -0.060444828
0.28716668 -0.28066984 -0.066051282
0.29616129 -0.28356871 -0.063685529
0.30295187 -0.28474075 -0.062189568
0.31393021 -0.28500819 -0.061138418
0.32100001 -0.28957561 -0.060117148
0.28585139 -0.27540958 -0.065639496
0.29444918 -0.27511007 -0.063887201
0.30451572 -0.2752175 -0.062256631
0.31207141 -0.27487347 -0.060749151
0.26820001 -0.26074326 -0.066757515
0.27586532 -0.26276094 -0.06658148
0.28380007 -0.26482412 -0.064646058
0.29407468 -0.26441616 -0.063418038
0.30451387 -0.26509351 -0.062143538
0.31345999 -0.26519343 -0.0607199
0.32900003 -0.26428813 -0.060067572
0.333 -0.26632637 -0.060014553
0.259 -0.25100875 -0.069829494
0.26446065 -0.25390354 -0.068235084
0.27489591 -0.25475106 -0.066537321
0.28431821 -0.25523737 -0.064468041
0.29491022 -0.25495279 -0.064100362
0.30441198 -0.25496086 -0.062366642
0.31179485 -0.25497717 -0.060552567
0.248125 -0.2417094 -0.069669679
0.25674999 -0.24397513 -0.069741197
0.26412362 -0.24617532 -0.069008701
0.27401927 -0.24515918 -0.067247562
0.28403035 -0.24514319 -0.065463237
0.2947 -0.24505375 -0.064231761
0.30432761 -0.24544545 -0.062280376
0.31438372 -0.24546814 -0.061321121
0.24800001 -0.2391814 -0.06978064
0.25502044 -0.23435262 -0.069288947
0.26574507 -0.23455639 -0.068831936
0.27397069 -0.2351141 -0.067047365
0.28466216 -0.23492993 -0.065270923
0.29379225 -0.23479414 -0.063385382
0.30495349 -0.23380242 -0.062591977
0.31343633 -0.23483616 -0.061051816
0.32066667 -0.23219906 -0.060305636
0.25491101 -0.22467065 -0.069346108
0.2642608 -0.22496542 -0.068372548
0.27436802 -0.22473204 -0.066611275
0.28490907 -0.22483137 -0.064863227
0.29432818 -0.22558707 -0.063835688
0.30346832 -0.22489697 -0.062523983
0.31485456 -0.22456537 -0.061113071
0.32070002 -0.22593386 -0.060286779
0.2568 -0.21511783 -0.069335654
0.26410002 -0.21578267 -0.068430893
0.27463394 -0.21572921 -0.067161433
0.28380233 -0.21543531 -0.06517151
0.29554549 -0.21494946 -0.064343177
0.30344871 -0.21541202 -0.062723756
0.31414071 -0.2150106 -0.061420821
0.32100001 -0.21859677 -0.060117144
0.25627112 -0.20483941 -0.069569021
0.26433051 -0.20481381 -0.068322062
0.27419999 -0.20452482 -0.066226855
0.28412494 -0.20544897 -0.064884789
0.29468176 -0.204666 -0.064055324
0.30444625 -0.20476852 -0.062857062
0.31300002 -0.20438801 -0.06101162
0.25610009 -0.19486135 -0.069583401
0.26467609 -0.19532973 -0.068393961
0.27320862 -0.19447944 -0.066409297
0.28434488 -0.19451572 -0.064799756
0.29416659 -0.19533359 -0.064275846
0.30444813 -0.19497992 -0.063163787
0.31450704 -0.19523151 -0.061120968
0.32100004 -0.19518885 -0.060117144
0.25520635 -0.18595424 -0.069515496
0.26557377 -0.18501893 -0.069214791
0.27413827 -0.1852687 -0.066745706
0.28356892 -0.18438533 -0.064853661
0.29458928 -0.18488118 -0.064344399
0.3046616 -0.18540233 -0.062814169
0.31457892 -0.18512809 -0.061346669
0.32249999 -0.18478237 -0.060462326
0.25460002 -0.17650031 -0.069716647
0.26467943 -0.17467017 -0.068780661
0.27403045 -0.17507167 -0.06678459
0.28425685 -0.17506738 -0.065325662
0.29420009 -0.17484249 -0.064017445
0.30433336 -0.17516318 -0.062373091
0.31458339 -0.17500861 -0.061684106
0.32164717 -0.17477724 -0.060882099
0.25809997 -0.16431314 -0.069857933
0.26522133 -0.16529532 -0.068757668
0.27438083 -0.16491112 -0.066786617
0.28441665 -0.16474248 -0.065352023
0.29494745 -0.16512856 -0.063992076
0.30371431 -0.16468236 -0.06272845
0.31454849 -0.16479452 -0.061463922
0.32100007 -0.16507758 -0.06025828
0.25732499 -0.15460683 -0.069814786
0.26427776 -0.15523526 -0.068908304
0.27522224 -0.15511817 -0.067316413
0.28361425 -0.15530086 -0.065591566
0.29429066 -0.15497832 -0.064393491
0.30460256 -0.15485321 -0.062593341
0.31454548 -0.1548589 -0.061201748
0.32121742 -0.15471737 -0.060518268
0.25820002 -0.14347748 -0.069855608
0.2641249 -0.14492609 -0.068829194
0.27482933 -0.14516936 -0.067218661
0.28473336 -0.14532067 -0.066042572
0.29416472 -0.14527474 -0.064724259
0.30381823 -0.14565384 -0.063192315
0.31537515 -0.14492111 -0.062030472
0.32050002 -0.14889584 -0.060399879
0.25779995 -0.13492788 -0.069868125
0.26468986 -0.13480572 -0.068428107
0.27416396 -0.13432784 -0.066751853
0.28521803 -0.13473415 -0.065956265
0.29378387 -0.13452432 -0.063750423
0.30480954 -0.13441055 -0.062129974
0.31231582 -0.13724697 -0.061311062
0.25739998 -0.12472598 -0.069879852
0.2640624 -0.1249103 -0.068457097
0.27464709 -0.12474602 -0.066997573
0.2847501 -0.12493493 -0.065485969
0.29415625 -0.1248886 -0.062744103
0.30204171 -0.1272669 -0.061033379
0.25735894 -0.1154882 -0.069850147
0.26400849 -0.11499511 -0.068521939
0.27469659 -0.11464704 -0.067168497
0.28556487 -0.11514138 -0.0653276
0.29218999 -0.11601559 -0.062161971
0.25680333 -0.10453402 -0.069549546
0.26380599 -0.1050754 -0.068698466
0.27522814 -0.10500863 -0.067465529
0.28376806 -0.10572448 -0.063557975
0.25567648 -0.095203884 -0.069803506
0.26526943 -0.094902694 -0.068956837
0.27461439 -0.095159918 -0.064848669
0.28 -0.099636376 -0.062245183
0.25537288 -0.084759422 -0.069813594
0.26561412 -0.084569797 -0.066132963
0.27080643 -0.08896599 -0.063680947
0.25595465 -0.074512132 -0.066666633
0.2611765 -0.078307353 -0.064342566
0.24675369 -0.063408926 -0.064591095
0.25139713 -0.068295017 -0.066170245
0.23764911 -0.051925816 -0.064672142
0.24188416 -0.057050403 -0.065479793
0.23441243 -0.044593673 -0.065069214
0.23735142 -0.037772756 -0.064626567
0.24211363 -0.033043917 -0.065268174
0.24809191 -0.028728321 -0.064969614
0.2525129 -0.023626139 -0.065175749
0.25785217 -0.01721907 -0.066725485
0.26394036 -0.013404701 -0.065136202
0.25819999 -0.0091671972 -0.069855623
0.26697636 -0.006431567 -0.067740187
0.27383503 -0.0039609973 -0.064602934
0.28 -0.00049141387 -0.060836405
0.26651666 0.004350414 -0.069489248
0.27458614 0.0044777477 -0.067651294
0.2830371 0.0054439767 -0.063565046
0.25568002 0.017377885 -0.06964761
0.26605001 0.016832221 -0.069204286
0.2752257 0.014736384 -0.0684563
0.2840794 0.014604681 -0.065583766
0.29414821 0.016054485 -0.063781828
0.30230442 0.01850923 -0.061986461
0.25615942 0.025397863 -0.069538079
0.26397097 0.024744995 -0.06868571
0.27437657 0.024975227 -0.06788189
0.28441349 0.024718134 -0.066182166
0.29456866 0.023975438 -0.06442441
0.30511627 0.02515023 -0.063089952
0.31145233 0.0261517 -0.060855728
0.24900001 0.035731643 -0.069476292
0.25461769 0.032583848 -0.069804475
0.26481393 0.033458114 -0.069346286
0.27449501 0.034993254 -0.068409599
0.28460279 0.035516828 -0.066496454
0.29400009 0.035572737 -0.064937308
0.30520004 0.034822714 -0.063005067
0.31347725 0.034950811 -0.060663048
0.32119998 0.038159899 -0.060154606
0.25605464 0.046036426 -0.069719426
0.2643699 0.045718003 -0.069180913
0.27500975 0.044932019 -0.068111524
0.28393883 0.045155521 -0.066018313
0.29434928 0.044813957 -0.064633936
0.30344042 0.045163888 -0.062714688
0.31467861 0.046394669 -0.061042123
0.32507408 0.046085719 -0.060619999
0.33000001 0.045026395 -0.060250148
0.25661543 0.051009476 -0.069784969
0.26524669 0.055237576 -0.069226369
0.27459151 0.055403031 -0.067756057
0.28409413 0.054464385 -0.066047929
0.29399997 0.055177994 -0.064734474
0.30516666 0.055022065 -0.063602768
0.31222862 0.055216808 -0.061342709
0.26655403 0.06500718 -0.069437295
0.27385715 0.064670205 -0.067628868
0.28460297 0.065553568 -0.066552833
0.29436365 0.065025784 -0.0648522
0.30427423 0.064678848 -0.063188158
0.31287831 0.064960621 -0.061392203
0.32100001 0.067583866 -0.060117144
0.26656753 0.075014345 -0.069372475
0.27431473 0.074987315 -0.067577712
0.28393441 0.074608989 -0.06622947
0.29446155 0.075012498 -0.065143906
0.3040148 0.07517232 -0.063224934
0.31393251 0.075054109 -0.061387662
0.32109094 0.075912461 -0.060134172
0.25608337 0.086793303 -0.069893092
0.26612931 0.085208341 -0.069350056
0.27373084 0.084844165 -0.067460619
0.28458324 0.08461304 -0.066219345
0.29501352 0.085088626 -0.065350078
0.30400005 0.085322641 -0.06354215
0.3139092 0.084935591 -0.061722003
0.3221935 0.085558668 -0.060459584
0.25533333 0.092746839 -0.069695592
0.26644832 0.091823839 -0.069323994
0.2739611 0.095521763 -0.06832853
0.28533739 0.095622003 -0.06706176
0.29366672 0.094778858 -0.064701729
0.30409262 0.094665393 -0.062969133
0.31461975 0.095522963 -0.061497562
0.32111114 0.0934131 -0.060388871
0.25875002 0.10643858 -0.069837645
0.26444864 0.10596277 -0.06923838
0.27406451 0.10506422 -0.068327487
0.28481489 0.10499711 -0.06636738
0.29430658 0.10465536 -0.064310148
0.30445465 0.104969 -0.062288832
0.31400004 0.10269383 -0.061033372
0.32335719 0.10627842 -0.060390741
0.33000001 0.10984451 -0.060250148
0.25784999 0.11360975 -0.069791481
0.26503801 0.11498618 -0.069109447
0.27454251 0.11486298 -0.067701489
0.28518966 0.11431644 -0.066540003
0.2939032 0.11522914 -0.064478911
0.3049584 0.11250294 -0.06275215
0.31563997 0.1148368 -0.061899316
0.32471871 0.11635976 -0.06133154
0.33132261 0.11478101 -0.060665704
0.26794738 0.12457372 -0.069353603
0.27394456 0.12554476 -0.067967787
0.28443903 0.1253407 -0.067150645
0.29439771 0.12492038 -0.066136554
0.30430907 0.12647673 -0.063956112
0.31496435 0.12635836 -0.062937878
0.32409406 0.12461361 -0.061536249
0.33000001 0.12071222 -0.060250148
0.19545941 0.13729955 -0.065743029
0.20371225 0.1373414 -0.065264538
0.21682353 0.13920245 -0.065221995
0.22171155 0.13899766 -0.064784117
0.23 0.13985917 -0.066339009
0.2422778 0.13886601 -0.069432184
0.25874999 0.13856253 -0.069335498
0.26452377 0.13525674 -0.068963207
0.27386782 0.13539541 -0.067356579
0.2844699 0.1356761 -0.066450395
0.29467833 0.13551797 -0.065073036
0.30418748 0.13495828 -0.06287919
0.31431589 0.13447498 -0.061179437
0.32460877 0.13447885 -0.060521096
0.33000001 0.13429686 -0.060250148
0.21747369 0.14023817 -0.063857138
0.23697622 0.1412366 -0.067145094
0.24512264 0.14191161 -0.065938212
0.25582117 0.14247766 -0.065650441
0.26361942 0.14197262 -0.064150453
0.27401111 0.14207882 -0.064854302
0.28505126 0.14353748 -0.062867396
0.29385722 0.14269151 -0.061942723
0.3028 0.14067163 -0.060761917
0.31649998 0.14265785 -0.060552604
0.32100001 0.144981 -0.060117148
0.377 -0.37024546 -0.050207924
0.36900005 -0.3615208 -0.052614529
0.37485287 -0.36368617 -0.050901461
0.38333336 -0.3619003 -0.050834525
0.36658701 -0.35489148 -0.053895805
0.37318748 -0.35613707 -0.05238558
0.38277417 -0.35566586 -0.051379174
0.35900003 -0.34074524 -0.054566588
0.3659167 -0.34420788 -0.054320004
0.37496004 -0.3454313 -0.051972412
0.38000003 -0.34771612 -0.050607461
0.35771433 -0.33555317 -0.054129548
0.36503851 -0.33444327 -0.052571699
0.3724167 -0.33445373 -0.050688714
0.33700001 -0.32165703 -0.055112768
0.34400001 -0.322319 -0.0548857
0.35545945 -0.32397151 -0.053434905
0.36463633 -0.32448032 -0.051945876
0.37342298 -0.32529786 -0.050369665
0.32567275 -0.31434572 -0.057948489
0.33461538 -0.31604004 -0.05681419
0.34414759 -0.31519482 -0.055644497
0.35473078 -0.31460869 -0.054086924
0.36427918 -0.31544918 -0.051894277
0.37279412 -0.3143968 -0.051064096
0.32455558 -0.30528477 -0.058812708
0.33424324 -0.30446398 -0.057319898
0.34416011 -0.30506393 -0.055912677
0.35478181 -0.30478728 -0.0539787
0.36447227 -0.3051945 -0.052823137
0.37346512 -0.3053501 -0.051406261
0.38187501 -0.30445963 -0.05035039
0.32503453 -0.29524368 -0.058691055
0.3345682 -0.29465503 -0.057179447
0.34471923 -0.29491287 -0.056216143
0.35365966 -0.29472736 -0.054490842
0.36522859 -0.29491699 -0.052655976
0.37425935 -0.29502189 -0.051110651
0.38266668 -0.29465196 -0.050531451
0.39019999 -0.29601091 -0.050130118
0.3177273 -0.28261554 -0.059706952
0.32421049 -0.28548503 -0.058623414
0.33376479 -0.28530696 -0.057653509
0.34477788 -0.28494829 -0.05628923
0.35466003 -0.28467849 -0.054148141
0.36500013 -0.28540802 -0.05233277
0.37435129 -0.2842364 -0.051634882
0.38229418 -0.28541368 -0.050541181
0.31674072 -0.27477339 -0.059704378
0.32430762 -0.27479267 -0.058532748
0.33495554 -0.27415064 -0.05771672
0.34452081 -0.27475932 -0.055936825
0.35468006 -0.27566427 -0.054270983
0.36416671 -0.27488816 -0.053420577
0.37508896 -0.27543923 -0.052143537
0.38100004 -0.27558649 -0.050547577
0.31789479 -0.26629868 -0.05977032
0.32440552 -0.2662732 -0.059410211
0.33463228 -0.26567259 -0.058226325
0.34415388 -0.26499102 -0.056288756
0.35385376 -0.2645295 -0.054914981
0.36440006 -0.26451847 -0.053741276
0.37463841 -0.26502803 -0.051853519
0.38166672 -0.26337305 -0.050408509
0.31581819 -0.2549845 -0.059821378
0.32523531 -0.25378498 -0.059123825
0.33415216 -0.25473362 -0.057944082
0.34469223 -0.25534061 -0.05682816
0.35449997 -0.25519484 -0.055349857
0.36444452 -0.25426978 -0.054129835
0.37393019 -0.25525627 -0.051979102
0.38231251 -0.25635922 -0.05052039
0.31890002 -0.24454837 -0.059723862
0.32409531 -0.24580644 -0.058945805
0.33465791 -0.24480461 -0.057881236
0.34396303 -0.24539115 -0.05689165
0.35496554 -0.24685273 -0.056917775
0.36302257 -0.24460359 -0.055228822
0.37310001 -0.24586856 -0.05104477
0.3174167 -0.2373098 -0.059755776
0.3243393 -0.2347077 -0.058840625
0.33311531 -0.23542407 -0.057375416
0.34257144 -0.23811662 -0.056904528
0.35655558 -0.23437439 -0.056518607
0.36367089 -0.23508374 -0.052674945
0.37114283 -0.23415552 -0.050363101
0.32469833 -0.22499928 -0.058645807
0.33680001 -0.2231373 -0.058402844
0.34461764 -0.22317468 -0.057019502
0.35493183 -0.22484112 -0.054737497
0.36440003 -0.22579628 -0.052732002
0.37393185 -0.22506255 -0.051193442
0.38423076 -0.223581 -0.051029228
0.31866667 -0.21176134 -0.059680164
0.32324243 -0.21624963 -0.059147749
0.33577141 -0.21503316 -0.058837701
0.34478888 -0.2154156 -0.056748115
0.35470214 -0.21478109 -0.054367486
0.36424243 -0.21542446 -0.053022079
0.37465382 -0.2143741 -0.052432813
0.38200006 -0.21647505 -0.051360749
0.31704351 -0.2055155 -0.059698749
0.32493335 -0.20335683 -0.059319679
0.33446521 -0.20472032 -0.058240075
0.34492308 -0.20541765 -0.056600414
0.35459626 -0.20508346 -0.054609936
0.36508337 -0.20466013 -0.053161371
0.374275 -0.20534723 -0.051422663
0.38300002 -0.20225699 -0.050106056
0.39344445 -0.20356008 -0.050647572
0.32602134 -0.19488266 -0.059404571
0.33439213 -0.19528213 -0.057819318
0.34560391 -0.19469181 -0.056418229
0.35381815 -0.19495259 -0.054339029
0.36621049 -0.19439752 -0.052505448
0.37296432 -0.19588436 -0.051012628
0.38238466 -0.19348142 -0.050507229
0.39080003 -0.19442418 -0.050207205
0.32716295 -0.18511428 -0.059155688
0.3346341 -0.18501687 -0.057999711
0.34495378 -0.18490463 -0.056327917
0.35370371 -0.18581825 -0.054249384
0.36528268 -0.18514135 -0.053160716
0.37332144 -0.18602917 -0.051313072
0.38427275 -0.18590485 -0.050803438
0.3915 -0.18694745 -0.050297137
0.32612827 -0.17503029 -0.059539814
0.33424997 -0.17501056 -0.058572207
0.34391308 -0.17541064 -0.05666028
0.35500008 -0.17417563 -0.05458197
0.36251858 -0.17558326 -0.052190352
0.37300003 -0.17708652 -0.051134437
0.32616675 -0.1649286 -0.059589282
0.33349997 -0.16515958 -0.058170188
0.34388238 -0.1676414 -0.056973685
0.35452172 -0.16853909 -0.055325322
0.36000001 -0.16978699 -0.052178081
0.32543948 -0.15435039 -0.057872657
0.33133334 -0.15808213 -0.057112522
0.31745103 -0.14221123 -0.055472098
0.3214615 -0.14725137 -0.055176675
0.30774358 -0.13175946 -0.054406919
0.31233329 -0.13646895 -0.055434328
0.29822576 -0.12141798 -0.054133881
0.30278167 -0.12620665 -0.055328999
0.28873336 -0.11068339 -0.053621791
0.29345906 -0.11563741 -0.055228613
0.27875003 -0.10064872 -0.050729632
0.28457141 -0.10516069 -0.055305593
0.27462494 -0.094462954 -0.055078492
0.28 -0.099782743 -0.057444364
0.26516664 -0.084145695 -0.054686755
0.2703636 -0.089266151 -0.05589788
0.25635594 -0.074523911 -0.054700848
0.26060009 -0.078801252 -0.055796526
0.24579212 -0.064321026 -0.054833107
0.25025001 -0.06937208 -0.055729032
0.2367125 -0.053187668 -0.054829013
0.24102402 -0.058128018 -0.055307433
0.23204915 -0.044713184 -0.054876745
0.23691143 -0.037266836 -0.054534465
0.24138609 -0.032645233 -0.055684965
0.24619262 -0.027767615 -0.054502241
0.25328311 -0.022874778 -0.055470575
0.25798905 -0.018290589 -0.054916836
0.26288825 -0.013402619 -0.055003501
0.26807243 -0.0086453576 -0.054556005
0.27427039 -0.0038382756 -0.054983761
0.28 -0.00045848143 -0.058893394
0.27900001 0.00040363381 -0.052688882
0.28399521 0.0052982927 -0.055127885
0.28775346 0.011886454 -0.05502427
0.29024136 0.014564849 -0.051695939
0.30500001 0.018305011 -0.059628226
0.31534538 0.02482071 -0.05860614
0.3242667 0.028201783 -0.057619169
0.33361113 0.028778378 -0.055712655
0.31700006 0.031378634 -0.059685919
0.32536539 0.034889467 -0.059072264
0.33413085 0.034424495 -0.056155615
0.34362501 0.038297862 -0.055052284
0.35655558 0.037509806 -0.054473143
0.36435708 0.038020324 -0.052707963
0.37 0.03916949 -0.050146043
0.32666668 0.045665253 -0.059381399
0.33370006 0.044717968 -0.057999346
0.34481248 0.04468625 -0.056153268
0.35470831 0.045945596 -0.05468829
0.36467934 0.044536453 -0.052491341
0.37175006 0.045436732 -0.050775707
0.31609675 0.055246141 -0.059077926
0.32273334 0.051798888 -0.058970012
0.335421 0.053389989 -0.05861818
0.34423915 0.055927593 -0.05749036
0.35521871 0.05386249 -0.055995226
0.36456004 0.055161063 -0.053910103
0.37286845 0.055583276 -0.051407211
0.31684616 0.06183837 -0.059337579
0.32395652 0.065863527 -0.059208728
0.3342858 0.067265138 -0.05855529
0.34481594 0.064445853 -0.057297256
0.35347506 0.065954447 -0.054468792
0.36489654 0.064185292 -0.054096889
0.3745645 0.064964011 -0.051921561
0.32581818 0.075355798 -0.059622589
0.33414713 0.075065978 -0.058142692
0.34518647 0.075217858 -0.056091178
0.35300004 0.074603833 -0.053605691
0.36516666 0.073012441 -0.052566245
0.37533331 0.07346908 -0.05174619
0.3824667 0.076992437 -0.051053897
0.32718185 0.084859706 -0.059546005
0.33334997 0.084817506 -0.057808302
0.34546894 0.085206002 -0.055330645
0.35246879 0.083556361 -0.053075098
0.3644667 0.084108979 -0.051905878
0.37460002 0.084330514 -0.052002095
0.3836765 0.083882995 -0.051383168
0.3248215 0.094981611 -0.059066247
0.33340004 0.092565753 -0.058148649
0.34627905 0.094249934 -0.056565475
0.35145834 0.096495353 -0.055210307
0.37600002 0.094199665 -0.053612638
0.384 0.096203908 -0.053850036
0.39435297 0.097130954 -0.051558375
0.32600006 0.10296563 -0.059333999
0.33344829 0.10653223 -0.058873348
0.34516129 0.10566284 -0.058037471
0.35312331 0.10489567 -0.055972878
0.36418182 0.10607748 -0.053583335
0.37527272 0.10618541 -0.052482259
0.38371113 0.10376393 -0.052020196
0.39200002 0.10195526 -0.051158652
0.33589292 0.11546669 -0.058723204
0.34402084 0.11517179 -0.056836147
0.3543725 0.11476343 -0.05553877
0.36466664 0.114799 -0.053485233
0.37397876 0.115399 -0.051388629
0.38300002 0.11036839 -0.050106056
0.32800001 0.1265389 -0.059884995
0.3350561 0.12498657 -0.058131892
0.34393331 0.12446932 -0.055686075
0.35461104 0.12501901 -0.054659497
0.36420929 0.12443052 -0.053298678
0.37429035 0.12336001 -0.051430251
0.38214287 0.12745865 -0.050505716
0.19702449 0.13734981 -0.05330918
0.20293961 0.13717735 -0.054595891
0.21644071 0.13919835 -0.057054963
0.22376926 0.13952033 -0.054017745
0.23452388 0.13963725 -0.054495942
0.24000001 0.13972987 -0.059061307
0.32588887 0.13929902 -0.059664473
0.33474994 0.13490681 -0.058133952
0.34397435 0.13550383 -0.055720195
0.35461292 0.13517651 -0.054702207
0.36456245 0.13479646 -0.053744864
0.37516668 0.1353917 -0.052533392
0.38457575 0.13524544 -0.051293261
0.39000002 0.13440326 -0.050104424
0.21778947 0.14036049 -0.05663969
0.2235152 0.14046088 -0.051661655
0.23476925 0.1402418 -0.055420492
0.24900001 0.14262685 -0.058054611
0.25606668 0.1436566 -0.058755402
0.26391017 0.14323129 -0.057880495
0.27433336 0.14386258 -0.058184989
0.28683335 0.14731045 -0.058886826
0.29575613 0.14659527 -0.057926077
0.30273843 0.14529926 -0.056780782
0.31530491 0.14795153 -0.054724157
0.32376924 0.14480464 -0.057322804
0.33422226 0.14399852 -0.056455601
0.34482977 0.14538886 -0.055547547
0.35498148 0.14595154 -0.054211717
0.36429998 0.14575979 -0.052495677
0.37425643 0.14494839 -0.051575966
0.38378578 0.14360158 -0.051012408
0.347 0.15111834 -0.053482115
0.35423076 0.15158316 -0.051848367
0.36150002 0.15093921 -0.050693002
0.38800001 -0.38013569 -0.047109384
0.37900001 -0.37176389 -0.049582753
0.38616392 -0.3741605 -0.047355458
0.396375 -0.37143129 -0.044747725
0.40000001 -0.37150571 -0.045429949
0.37900001 -0.36864352 -0.049582753
0.38564405 -0.36567777 -0.048491891
0.39381817 -0.36532405 -0.04696935
0.40000001 -0.3639783 -0.046370875
0.38694447 -0.35477805 -0.049154367
0.39348286 -0.35510233 -0.047705807
0.40000001 -0.35645089 -0.046684518
0.37900001 -0.34145188 -0.049582753
0.38487098 -0.34475458 -0.048737895
0.39543477 -0.3453854 -0.047279701
0.40000001 -0.34484613 -0.046684518
0.37706256 -0.33504459 -0.049660087
0.38497427 -0.33491838 -0.048732635
0.39369565 -0.3348006 -0.047275435
0.40000001 -0.33543682 -0.047154985
0.37850001 -0.32141429 -0.049517341
0.38329998 -0.3253257 -0.048877336
0.39505267 -0.32529208 -0.04820909
0.40000001 -0.32571393 -0.047782268
0.37589476 -0.31415343 -0.049594365
0.38418186 -0.31441757 -0.049189616
0.39528573 -0.31500241 -0.04750907
0.40000001 -0.31144321 -0.046684518
0.3768 -0.30941901 -0.049647786
0.38604352 -0.30508897 -0.04923806
0.3947778 -0.3047877 -0.048215639
0.40000004 -0.30505833 -0.047087777
0.38622224 -0.29710364 -0.049918618
0.39503846 -0.2954942 -0.048889417
0.40000001 -0.29027233 -0.047625449
0.38653335 -0.2843186 -0.049353562
0.39386368 -0.28508818 -0.048195127
0.40000001 -0.28839049 -0.047625449
0.38414288 -0.2751154 -0.049348511
0.39547372 -0.27452216 -0.047863409
0.40000001 -0.27945167 -0.047625449
0.38590321 -0.26591042 -0.049369056
0.39440739 -0.26548603 -0.047985882
0.38590917 -0.25450537 -0.049121544
0.39253849 -0.25757745 -0.048010383
0.37661541 -0.24263485 -0.049268071
0.384 -0.24497648 -0.0481769
0.39250001 -0.24605179 -0.047191173
0.37608114 -0.23486543 -0.049197711
0.38286003 -0.23369396 -0.046641782
0.39571434 -0.23190047 -0.045979686
0.40000001 -0.23569857 -0.045743592
0.37766668 -0.22890098 -0.049406752
0.38542107 -0.22715604 -0.048893299
0.39399996 -0.22564651 -0.047427155
0.40000001 -0.22534837 -0.046057235
0.38577786 -0.21417558 -0.048817255
0.39447835 -0.21556723 -0.047811564
0.40000001 -0.21358678 -0.048095912
0.37900001 -0.20638534 -0.049582753
0.38235718 -0.20699213 -0.049184024
0.39600003 -0.20609897 -0.049433827
0.40000001 -0.20747076 -0.049507301
0.38900003 -0.19352986 -0.049975954
0.39592004 -0.19465876 -0.049260151
0.40000001 -0.19398414 -0.048252732
0.39450002 -0.18752651 -0.048978295
0.32200003 -0.15035015 -0.043640614
0.31693229 -0.14316179 -0.04463448
0.32078841 -0.14795741 -0.045567308
0.30713791 -0.13272636 -0.044927832
0.31175518 -0.13766751 -0.045081191
0.29737735 -0.12214597 -0.044556227
0.30218846 -0.12718645 -0.045375425
0.28808108 -0.11149172 -0.04431919
0.29254845 -0.11639723 -0.045104571
0.2782273 -0.10110074 -0.044802904
0.28304771 -0.10619271 -0.044935059
0.26900002 -0.090557151 -0.043807443
0.27327031 -0.095227167 -0.045224819
0.25900003 -0.080224805 -0.042634781
0.26413491 -0.085156508 -0.045013059
0.25541461 -0.075405747 -0.04480698
0.26000002 -0.07950595 -0.048998818
0.24417841 -0.0647019 -0.044782348
0.25 -0.069685116 -0.049466565
0.23558414 -0.054148987 -0.044678614
0.24033326 -0.058960162 -0.046461686
0.22900003 -0.04481199 -0.040401097
0.23063962 -0.044862572 -0.045195661
0.23567221 -0.036218476 -0.04482815
0.24036919 -0.031064719 -0.045312271
0.2445309 -0.027445516 -0.044374485
0.25209934 -0.022434657 -0.045586228
0.2566281 -0.017777247 -0.044668317
0.2622214 -0.012877754 -0.04520737
0.26678374 -0.0077501601 -0.044918373
0.27326319 -0.002887018 -0.04492021
0.2779834 0.0015850955 -0.043617941
0.28379184 0.0063220314 -0.045402795
0.28787956 0.012336391 -0.044087905
0.29008329 0.014749769 -0.047598504
0.37613994 0.045464419 -0.04835451
0.37681821 0.05352287 -0.048757281
0.38085714 0.056641601 -0.048418693
0.39500001 0.059934806 -0.047959294
0.37840003 0.068096019 -0.049504261
0.38204554 0.065112725 -0.048995566
0.39616671 0.063373715 -0.048100948
0.37900001 0.070879996 -0.049582753
0.38525003 0.075415492 -0.049128275
0.39200002 0.078107141 -0.047958247
0.40000001 0.078571089 -0.047625449
0.38817647 0.082909562 -0.049009614
0.39200008 0.084980182 -0.047699448
0.39737508 0.094886713 -0.048946399
0.38825002 0.10799877 -0.049879599
0.39611545 0.10445981 -0.049274322
0.40000001 0.10773983 -0.048566375
0.38350007 0.11546557 -0.049774073
0.3939167 0.11466295 -0.049060967
0.40000004 0.11392307 -0.048566375
0.38437507 0.12387849 -0.049718149
0.39495838 0.1255409 -0.048761871
0.40000001 0.1223242 -0.048566375
0.19468611 0.13743998 -0.045261033
0.20574528 0.13827264 -0.0449985
0.21328244 0.13793305 -0.04438588
0.22308004 0.13950424 -0.047932077
0.23284283 0.13928328 -0.047128193
0.38862503 0.13518555 -0.049927779
0.39411902 0.13547969 -0.048508793
0.40000001 0.13737904 -0.047154985
0.21900001 0.14038245 -0.049772184
0.22745003 0.14060114 -0.046524372
0.23529485 0.14128277 -0.043367643
0.24325806 0.14130002 -0.042768821
0.25527275 0.1429552 -0.043673269
0.2636326 0.14285645 -0.044461563
0.27312499 0.14323312 -0.042331412
0.28407145 0.1446649 -0.044417579
0.29531109 0.14583649 -0.043686349
0.30650002 0.14743847 -0.047665335
0.31425002 0.14847736 -0.047176387
0.347 0.14978585 -0.040498819
0.37599999 0.14956287 -0.049542185
0.38609761 0.14666447 -0.048779987
0.39381257 0.1450094 -0.047152448
0.40000001 0.14914063 -0.045743592
0.35600001 0.15220471 -0.043022066
0.3645094 0.1530962 -0.047249228
0.37475762 0.1526508 -0.047071822
0.38292593 0.15218753 -0.045056693
0.39445451 0.15119959 -0.044433877
0.40000001 0.15290433 -0.043861739
0.39700001 -0.36187103 -0.039797295
0.35248777 -0.34159502 -0.031632509
0.36507934 -0.3427904 -0.033000905
0.37454259 -0.34245852 -0.033498153
0.38000003 -0.34011817 -0.035411488
0.35286206 -0.33937767 -0.032710187
0.37842867 -0.33813748 -0.032626417
0.38028574 -0.3365396 -0.030837314
0.3159239 -0.14454281 -0.034935877
0.32027271 -0.14940678 -0.037107006
0.30662355 -0.13378395 -0.034709796
0.3107 -0.13849688 -0.035898533
0.29644269 -0.12289789 -0.034990657
0.30147916 -0.12794657 -0.035321482
0.28731033 -0.11247012 -0.034747049
0.29172003 -0.11733127 -0.035339065
0.27762303 -0.10226768 -0.034514081
0.2824147 -0.10717071 -0.035435926
0.2680625 -0.091654591 -0.033915859
0.27262399 -0.096401423 -0.035304282
0.25854045 -0.081073746 -0.034040283
0.26313379 -0.085916631 -0.03515045
0.24813333 -0.070955545 -0.032891162
0.25406098 -0.075792082 -0.035343036
0.23869228 -0.060983811 -0.032005403
0.24271733 -0.065060981 -0.035297759
0.23389956 -0.054583266 -0.034837261
0.24000001 -0.059558481 -0.039019559
0.22803827 -0.044557214 -0.034504041
0.23005883 -0.044755992 -0.03851768
0.22900002 -0.039590932 -0.031575017
0.23453213 -0.035586774 -0.035043016
0.24015899 -0.03065783 -0.034679387
0.24472572 -0.025759708 -0.034735952
0.25054765 -0.021003639 -0.036372896
0.25556344 -0.016713753 -0.034553252
0.26115379 -0.011690105 -0.035809346
0.26665646 -0.0077081709 -0.035268407
0.27207968 -0.0028828133 -0.034995232
0.27694112 0.0026845036 -0.034416411
0.28201991 0.0075459862 -0.035494059
0.28632656 0.012600636 -0.0351234
0.29000002 0.016033711 -0.032823019
0.19488531 0.13693632 -0.033947285
0.20449486 0.13777792 -0.033955406
0.21647371 0.13883521 -0.033655662
0.223575 0.13890776 -0.031324871
0.23546514 0.13965629 -0.034504469
0.24085715 0.139661 -0.034181073
0.21729413 0.14082101 -0.030951865
0.23593654 0.14060719 -0.034018517
0.24256094 0.14090341 -0.034840785
0.25583872 0.14397669 -0.036595549
0.2631799 0.14326525 -0.035133798
0.27452636 0.14395572 -0.03589689
0.28451112 0.14506181 -0.033950016
0.29425007 0.14595798 -0.034443412
0.3038125 0.14657706 -0.034046192
0.31548336 0.1474483 -0.036438927
0.32375929 0.14759143 -0.03485015
0.33475 0.14867911 -0.03273816
0.3421945 0.14790928 -0.036590025
0.32499999 0.15052946 -0.030971373
0.35800001 -0.35130516 -0.026062107
0.3649725 -0.35383356 -0.022252424
0.35538459 -0.34353828 -0.027860217
0.36512515 -0.34371209 -0.025208479
0.37259611 -0.34200349 -0.02364618
0.39626929 -0.34198114 -0.024911316
0.40000001 -0.34371704 -0.02447864
0.36866668 -0.33980224 -0.025249533
0.37528127 -0.33840194 -0.025046766
0.38331878 -0.33727145 -0.023862757
0.39210525 -0.33915177 -0.022506122
0.30900002 -0.14064577 -0.023561692
0.3119286 -0.14374427 -0.024359975
0.30527633 -0.1350282 -0.02489545
0.31 -0.13964249 -0.029252928
0.29611585 -0.1241008 -0.024680346
0.30055562 -0.12899926 -0.025130711
0.28645974 -0.11326861 -0.024681015
0.2910926 -0.11833286 -0.025541045
0.27683163 -0.10330287 -0.025104374
0.28153327 -0.1082637 -0.02511837
0.26735103 -0.092497014 -0.024579439
0.27171612 -0.097521082 -0.025149453
0.25769114 -0.081797488 -0.024694785
0.26257512 -0.086753532 -0.02528658
0.24764289 -0.071339995 -0.026176976
0.25308391 -0.076462351 -0.02482442
0.23850848 -0.061291043 -0.024013558
0.24215268 -0.065787271 -0.025576526
0.22877783 -0.050674789 -0.024787998
0.23369642 -0.055401828 -0.024999512
0.22739294 -0.044908814 -0.024980005
0.22999999 -0.040605426 -0.021132693
0.24700001 -0.041540839 -0.020112354
0.22865523 -0.039567664 -0.027391287
0.2346784 -0.034938022 -0.024829043
0.24000001 -0.030342694 -0.029280964
0.23872222 -0.02950979 -0.024274297
0.24500743 -0.025419887 -0.025137939
0.25020513 -0.020725297 -0.024461426
0.25495374 -0.016043911 -0.024868792
0.26077196 -0.010903028 -0.025496399
0.26569933 -0.0067869495 -0.024576506
0.27170339 -0.0019209367 -0.025455847
0.27657038 0.002944933 -0.025249399
0.28158522 0.0078361696 -0.024638483
0.28487036 0.012533561 -0.024839755
0.29800001 0.018578991 -0.028471053
0.29999998 0.019409379 -0.024528774
0.3000001 0.021671757 -0.023701515
0.19648491 0.13737291 -0.026272111
0.20535067 0.13831986 -0.025014229
0.21453275 0.13853765 -0.024406813
0.22536846 0.13925311 -0.025369216
0.23 0.13931814 -0.025761534
0.24250002 0.13975638 -0.02326069
0.21752942 0.14088328 -0.029120026
0.22580767 0.14045379 -0.023165382
0.23862171 0.14182162 -0.024538128
0.24218182 0.14080751 -0.02371865
0.25427273 0.1419922 -0.020756513
0.26200002 0.14291278 -0.028123954
0.27671999 0.14553201 -0.027814526
0.28407148 0.14539626 -0.027838668
0.29639995 0.14674328 -0.027414899
0.30060002 0.14531119 -0.027906146
0.31700003 0.14887524 -0.023505311
0.32442865 0.14869225 -0.023749279
0.33405712 0.14847262 -0.026698396
0.34085712 0.14782044 -0.027297456
0.35100001 0.14986116 -0.028580714
0.31650001 0.15039304 -0.020931605
0.32580003 0.15048838 -0.028675804
0.34850001 0.15043333 -0.024687536
0.35621431 0.15244313 -0.023368808
0.36176473 0.15244709 -0.021243921
0.37350002 0.15265298 -0.021188784
0.38350004 0.15426147 -0.021755468
0.39579999 0.15688066 -0.021519933
0.39866671 -0.39121112 -0.011204933
0.38900003 -0.38203049 -0.014288941
0.39592314 -0.38528025 -0.011994597
0.38576925 -0.37395066 -0.013952406
0.39225006 -0.37622288 -0.011752409
0.36850002 -0.36102974 -0.018591449
0.37490913 -0.36341101 -0.016049141
0.3845152 -0.36442688 -0.012470311
0.39000002 -0.36925149 -0.010656058
0.36852381 -0.35597348 -0.019274324
0.37370253 -0.35428995 -0.016731605
0.38467908 -0.35457522 -0.012904578
0.39084619 -0.35208547 -0.011102958
0.37568974 -0.34649122 -0.018747145
0.38434479 -0.34468156 -0.01621935
0.39334112 -0.34377444 -0.012846777
0.40000001 -0.34051785 -0.015633926
0.38554168 -0.33878902 -0.018806463
0.39474079 -0.33946994 -0.016297115
0.40000001 -0.33920059 -0.014692999
0.30888239 -0.140806 -0.014082595
0.31122068 -0.14415731 -0.015375672
0.30490401 -0.13513324 -0.015015368
0.29685447 -0.12436657 -0.015500352
0.30040011 -0.12915659 -0.014368429
0.28466666 -0.11263224 -0.01592546
0.29160002 -0.11859695 -0.016475551
0.2765556 -0.10304055 -0.017496292
0.28170529 -0.10541142 -0.013183119
0.26762903 -0.09237203 -0.016958205
0.27264285 -0.097504072 -0.016276684
0.28366664 -0.097687982 -0.011589814
0.29573685 -0.092064463 -0.011042177
0.259 -0.08255104 -0.019261722
0.26565641 -0.086970329 -0.016040063
0.29408929 -0.084995255 -0.011084828
0.25400004 -0.077581815 -0.019684957
0.29875001 -0.077298239 -0.010622162
0.30050007 -0.075853027 -0.010507667
0.23835479 -0.061991822 -0.018630248
0.24020001 -0.065259092 -0.018994097
0.26287019 -0.06311734 -0.01450266
0.29710001 -0.065693744 -0.010492982
0.23480006 -0.055398941 -0.019065276
0.25675002 -0.050276376 -0.015317156
0.264 -0.059925221 -0.01497598
0.28828573 -0.050905537 -0.011458467
0.22895838 -0.045687605 -0.019451113
0.22999999 -0.047338281 -0.019209022
0.24805264 -0.041474227 -0.018753124
0.25318465 -0.045037489 -0.016428055
0.26050001 -0.047180984 -0.013168155
0.28443754 -0.044641253 -0.011762089
0.2387 -0.035539325 -0.019604471
0.24302636 -0.034948658 -0.018308938
0.25100002 -0.039556623 -0.016305039
0.28435141 -0.035043076 -0.011799237
0.24645205 -0.026107036 -0.018549655
0.25350001 -0.022438945 -0.016902804
0.26100001 -0.023634866 -0.014498821
0.28598651 -0.025220104 -0.011848833
0.25630638 -0.015613769 -0.017773058
0.26018187 -0.010707713 -0.017680965
0.28811544 -0.0183728 -0.012250357
0.29254389 -0.013694715 -0.01140695
0.26603076 -0.0065033799 -0.017813537
0.27155077 -0.0020881183 -0.016282937
0.28566664 -0.0021651667 -0.012319433
0.29276785 -0.0055149854 -0.011242578
0.27588126 0.0028295317 -0.016374154
0.28299132 0.0066648722 -0.014294068
0.29139283 0.0050252541 -0.010359562
0.28487188 0.01247328 -0.016671756
0.29452381 0.01482483 -0.011952524
0.30000001 0.019056533 -0.010666901
0.30067304 0.022473304 -0.012322416
0.19054382 0.13647991 -0.011672588
0.20530093 0.13801011 -0.014622126
0.21647295 0.13884731 -0.014802506
0.22207496 0.13910322 -0.011641094
0.23900001 0.13970987 -0.010465679
0.24000001 0.13972987 -0.010509469
0.21650001 0.14023836 -0.017949937
0.23727585 0.14135133 -0.016947959
0.24544151 0.14226148 -0.016728228
0.25345528 0.14224717 -0.015323431
0.26461196 0.14326844 -0.01337536
0.27476391 0.14412196 -0.013735721
0.28332606 0.14445896 -0.01562339
0.29646155 0.14733092 -0.013946882
0.30414066 0.14724338 -0.01287147
0.31492454 0.14790851 -0.016620789
0.32363164 0.14710586 -0.013597559
0.33600003 0.14898948 -0.013132499
0.36338887 0.14911619 -0.012451557
0.37100002 0.14967316 -0.015373176
0.31500003 0.15005137 -0.019351028
0.35823536 0.154063 -0.013383455
0.36256257 0.15213619 -0.015762214
0.37346667 0.15171584 -0.017932463
0.39800003 0.15682092 -0.019300647
0.39900002 -0.39138204 -0.0094941054
0.40000007 -0.39095154 -0.0073366584
0.39892602 -0.38454989 -0.0087101087
0.40000004 -0.38723484 -0.0068833036
0.39553851 -0.37543204 -0.0090880226
0.38849998 -0.36207357 -0.009335177
0.39064997 -0.36435559 -0.0078249248
0.38871431 -0.35797504 -0.0094451057
0.39250618 -0.35411924 -0.0074959914
0.39679363 -0.34593946 -0.0080834208
0.40000001 -0.34312108 -0.0076360446
0.30840003 -0.14131644 -0.0090075042
0.31024998 -0.14413454 -0.0097543392
0.30491301 -0.13528724 -0.0084857466
0.2985 -0.12638788 -0.0095603168
0.30060002 -0.1284792 -0.0092032161
0.2835263 -0.1023702 -0.0092905937
0.31371999 -0.10167131 -0.0059961481
0.28478947 -0.09813875 -0.0091915205
0.29833335 -0.091423616 -0.0090866061
0.30452779 -0.094637007 -0.0077373716
0.31457144 -0.097223453 -0.0056298417
0.32402703 -0.093398444 -0.0044984338
0.33100003 -0.094598956 -0.002036433
0.29619995 -0.084898047 -0.00863297
0.30276197 -0.082483925 -0.0077591785
0.31418753 -0.083413757 -0.00613306
0.32432264 -0.086366758 -0.0046973289
0.33530614 -0.084023058 -0.0027679971
0.34 -0.080375575 -0.0004922279
0.30452636 -0.075258352 -0.0080196979
0.31340003 -0.075904533 -0.0060567036
0.32371429 -0.074442171 -0.0054716947
0.33596671 -0.075266615 -0.0026783969
0.34 -0.079575785 -0.0004922279
0.29866669 -0.064563677 -0.0093313633
0.30296972 -0.066732123 -0.0080342516
0.31610006 -0.06376572 -0.0072259507
0.32381481 -0.064604878 -0.0052145976
0.33259997 -0.065670595 -0.0021197472
0.28999999 -0.051014066 -0.0096778926
0.30900002 -0.057783023 -0.0088063097
0.31812504 -0.056407664 -0.0078174332
0.32307935 -0.054891162 -0.0054188375
0.33127585 -0.053593013 -0.0025729984
0.287 -0.044714086 -0.0098671122
0.29000002 -0.048943188 -0.0094586229
0.31619999 -0.04277141 -0.0062076203
0.32512501 -0.046527233 -0.0042072521
0.33000001 -0.04903103 -0.0022890354
0.28611118 -0.03406246 -0.0090694996
0.31514287 -0.039234102 -0.0054310574
0.28703779 -0.024977 -0.0090140747
0.29050002 -0.020327238 -0.0077656778
0.289 -0.01937221 -0.0099358717
0.29484853 -0.014719485 -0.0082192337
0.30000001 -0.010935521 -0.0060798815
0.29634333 -0.0044718594 -0.0081145037
0.29652783 0.0043596751 -0.0079525905
0.30036366 0.0084492918 -0.0066004843
0.29861903 0.012798849 -0.0089612631
0.30081359 0.015577062 -0.0073781824
0.30133337 0.022094328 -0.0083736749
0.19277781 0.13692458 -0.0075767636
0.20575653 0.13833667 -0.0039782142
0.21331675 0.13837008 -0.0050762584
0.22328356 0.13934936 -0.005895088
0.2330357 0.13978069 -0.0067380709
0.24000001 0.13972987 -0.009944912
0.22800002 0.14033408 -0.0048482656
0.23462503 0.14034636 -0.0078595057
0.25880003 0.14544055 -0.0069541051
0.26389545 0.14353107 -0.0063710702
0.27408338 0.14356247 -0.0064185355
0.28516072 0.14594051 -0.0050562271
0.29396254 0.14635213 -0.0036369036
0.30438298 0.14713101 -0.0067465268
0.31542054 0.14802976 -0.0047740829
0.32232493 0.14628416 -0.005615802
0.33436367 0.14840117 -0.0015573665
0.3444348 0.14747295 -0.0020357857
0.3554118 0.14903173 -0.0064732372
0.36020002 0.14904407 -0.0091643585
0.34200001 0.15004103 -0.00049512339
0.35683334 0.1519985 -0.0083226655
0.36000001 0.15031642 -0.0098363608
0.34 -0.080375575 0.00030756008
0.33900002 -0.075354561 0.00030665551
0.34020001 -0.077703103 0.00078808435
0.18900006 0.13692318 0.008781936
0.1931304 0.13745414 0.0065521449
0.20444722 0.13804594 0.0055142273
0.21522443 0.13837324 0.0047757076
0.223717 0.13924463 0.001912285
0.2308 0.13990998 0.0023799683
0.21812502 0.14039759 0.0094972011
0.22725001 0.14018995 0.0024779069
0.23616287 0.14134769 0.0062200567
0.24369441 0.14133078 0.0069758412
0.2554594 0.14350069 0.0051970198
0.26255134 0.14270771 0.0050287102
0.27160004 0.14368773 0.0013945585
0.28653845 0.14691149 0.0012956669
0.29627776 0.14750892 0.0015471478
0.3036471 0.1471002 0.0035955256
0.31520584 0.14782935 0.0030326385
0.32406253 0.14826028 0.0027231611
0.33609757 0.14935204 0.0054066661
0.34175003 0.14802238 0.0041257185
0.35300002 0.1498847 0.0094533702
0.31750003 0.15068005 0.0092483619
0.32494447 0.15074533 0.0082764011
0.3334839 0.15054831 0.0072556483
0.35600001 0.15032108 0.0095337098
0.19494878 0.13690989 0.015636083
0.20635808 0.13834664 0.014189117
0.21226163 0.13839875 0.017445028
0.22268517 0.13954242 0.013641275
0.23381251 0.13978092 0.01914487
0.2405 0.13973752 0.012663667
0.21883334 0.14061828 0.01160944
0.22363488 0.14073549 0.014374003
0.23531644 0.14078282 0.015222798
0.24391375 0.14101245 0.013506247
0.25531706 0.1431475 0.0146422
0.26357254 0.14307259 0.015958223
0.27371627 0.143668 0.015720477
0.28430769 0.14509538 0.014557102
0.29703447 0.14758505 0.017956337
0.30350003 0.14750037 0.017762326
0.31714007 0.14920948 0.016586326
0.32237071 0.14689152 0.015526679
0.33292308 0.14864403 0.011083459
0.34200001 0.14843205 0.010767775
0.35100001 0.14986116 0.010225473
0.31588891 0.15047245 0.013327392
0.32318184 0.15055078 0.010450297
0.35440001 0.15080705 0.010988347
0.3635 0.15176135 0.013171297
0.18900003 0.13668083 0.026560444
0.19000001 0.13609509 0.025200535
0.20542267 0.13873619 0.026828151
0.21245122 0.13878429 0.025843663
0.22542624 0.13936116 0.025146697
0.23209094 0.13958001 0.021393426
0.22605556 0.14069617 0.024192609
0.23423807 0.14110787 0.028110553
0.2443511 0.14178494 0.027299693
0.25472727 0.14240879 0.028637761
0.26336923 0.14303681 0.023639675
0.2728889 0.14303584 0.022142489
0.28700003 0.14658321 0.022034435
0.29614872 0.14817004 0.02415218
0.30373684 0.14765003 0.025423091
0.31515282 0.14860076 0.025014903
0.32296219 0.14700779 0.024555681
0.3344 0.14780499 0.027367163
0.34430772 0.14861429 0.028724922
0.35100001 0.14862266 0.028802903
0.19551435 0.13758218 0.035361692
0.20519802 0.13865688 0.03579222
0.21318083 0.13887239 0.035939787
0.22423239 0.13936792 0.034473997
0.23081252 0.13977531 0.038180195
0.21850002 0.14036088 0.03343159
0.22226988 0.14056653 0.03448505
0.23576318 0.1411919 0.03340001
0.24496697 0.14245367 0.033788342
0.25464791 0.14288114 0.035116971
0.26223755 0.142491 0.035727646
0.27033332 0.14318769 0.039459247
0.29825002 0.14847252 0.036492258
0.30578572 0.14845888 0.034335397
0.31424293 0.14796853 0.034626186
0.32297668 0.14756803 0.033564053
0.33419356 0.14884065 0.036204822
0.34335011 0.14828548 0.032352101
0.29866669 0.1504672 0.03329201
0.30200002 0.15031524 0.0322414
0.33160001 0.15015574 0.038989477
0.34200001 0.15004103 0.032086831
0.36900002 0.15494233 0.038526025
0.37866667 0.15543836 0.038941722
0.38025001 0.15496978 0.039477129
0.19727273 0.13762437 0.044071421
0.20375928 0.13822269 0.046559874
0.21706623 0.13909422 0.043555591
0.22176923 0.13887665 0.044473134
0.23052381 0.1395569 0.041808266
0.2172882 0.14066757 0.046260208
0.22813639 0.14074904 0.043404125
0.23316176 0.14113912 0.046129219
0.24436511 0.14181675 0.04488622
0.25461963 0.14240576 0.043610279
0.26318035 0.14252561 0.042684034
0.27523077 0.14450301 0.045435693
0.28350002 0.14537233 0.046256907
0.29583338 0.14824457 0.046341833
0.30365098 0.14743486 0.045457888
0.31466046 0.14828813 0.044143692
0.32326004 0.14864035 0.044331055
0.33271429 0.14953603 0.041990764
0.3405 0.14978284 0.041157186
0.32800001 0.15007149 0.040417835
0.33480003 0.1501821 0.041651189
0.34775001 0.15276654 0.044486985
0.35507315 0.15379275 0.047504283
0.36425003 0.1532598 0.047953542
0.37549999 0.15581088 0.046223652
0.38391659 0.15553111 0.043683182
0.39350006 0.15411361 0.046820894
0.40000001 0.15384525 0.048349116
0.19680551 0.13820717 0.052748773
0.20552175 0.13868691 0.053881038
0.21238141 0.13891131 0.055442128
0.22203848 0.13971022 0.052590229
0.20650002 0.14038411 0.059691034
0.2182381 0.14045481 0.055105545
0.22415525 0.14056234 0.056603879
0.2344626 0.14089389 0.055462748
0.244784 0.1417598 0.05434797
0.25477779 0.14287458 0.057015162
0.26188892 0.14293617 0.057972841
0.27714285 0.14489515 0.052931756
0.28406671 0.14588764 0.055304494
0.2964676 0.14799786 0.054337528
0.30194288 0.14608873 0.055343363
0.31538466 0.14823385 0.055854816
0.32655177 0.14929405 0.05715473
0.33254346 0.14913359 0.054735553
0.34100002 0.14920005 0.054051869
0.35529414 0.14933074 0.054642502
0.361 0.149459 0.053825319
0.32643589 0.15076755 0.053572576
0.3346667 0.15022053 0.054627951
0.34513336 0.15103005 0.055078864
0.354 0.15177552 0.052196376
0.36514288 0.15147413 0.051611505
0.37368754 0.15218024 0.051919363
0.38600001 0.15421052 0.051197659
0.39500001 0.15442 0.051505052
0.40000001 0.15384525 0.053053755
0.19488235 0.13799948 0.062412113
0.20827505 0.13924997 0.061932158
0.21298335 0.13924211 0.065669738
0.22485001 0.13958879 0.064637855
0.23072225 0.13944405 0.067426838
0.24080002 0.13974117 0.06184902
0.26100001 0.13967715 0.061938569
0.20757698 0.14073941 0.063497774
0.2134074 0.14024673 0.067402951
0.22592314 0.14098866 0.066130981
0.23500006 0.14106002 0.063282631
0.24178128 0.14081046 0.063268773
0.25681964 0.14411695 0.063914038
0.26145124 0.14313318 0.065478064
0.27500004 0.14560747 0.069206491
0.28770375 0.14629212 0.067226462
0.29481819 0.14725091 0.064597577
0.30221954 0.14673817 0.063826635
0.31566668 0.14854956 0.065534398
0.32580498 0.14903919 0.064852878
0.3321 0.14913097 0.066543803
0.34833336 0.14931303 0.067365691
0.35126668 0.14909337 0.064598918
0.32454547 0.15098566 0.06747108
0.33500001 0.15024798 0.063874424
0.3455424 0.15133902 0.065167703
0.35058334 0.15112503 0.062235821
