# .PCD v0.7 - Point Cloud Data file format
VERSION 0.7
FIELDS x y z
SIZE 4 4 4
TYPE F F F
COUNT 1 1 1
WIDTH 1384
HEIGHT 1
VIEWPOINT 0 0 0 1 0 0 0
POINTS 1384
DATA ascii
0.25020325 -0.10524188 -0.065747268
0.249 -0.094571218 -0.061311822
0.2501094 -0.095302239 -0.066446915
0.24898304 -0.08507026 -0.062002242
0.25000662 -0.085172273 -0.066711605
0.24893768 -0.075084724 -0.064625755
0.25 -0.076084808 -0.067887299
0.24898612 -0.065016419 -0.063659333
0.25 -0.065577209 -0.068042979
0.24893811 -0.054800138 -0.064809136
0.24881114 -0.0448399 -0.064920299
0.24860735 -0.03497538 -0.065045096
0.24892785 -0.02679416 -0.064229406
0.25029346 -0.023283411 -0.066721022
0.25691998 -0.016267538 -0.069626629
0.264375 -0.014752411 -0.068845026
0.27375728 -0.014237334 -0.066768408
0.2844643 -0.011706511 -0.065475926
0.29468292 -0.012294005 -0.063766576
0.30114287 -0.010470761 -0.062162817
0.31566671 -0.010267711 -0.060354069
0.25660005 -0.0016306214 -0.06990128
0.2657088 -0.0049272631 -0.069036447
0.27473328 -0.0048877085 -0.067529045
0.28399998 -0.0050814701 -0.065789849
0.29443488 -0.0048689791 -0.064135201
0.30372494 -0.0049786558 -0.062311143
0.31414002 -0.0048020752 -0.060613953
0.32100001 -0.0026398792 -0.060117148
0.25721428 0.0031268296 -0.069882415
0.26424101 0.0049729296 -0.068742797
0.27472836 0.004960225 -0.067301713
0.28425297 0.0050005014 -0.065643229
0.29440483 0.0050722859 -0.063855954
0.3044624 0.0051259534 -0.061861049
0.31197152 0.004499122 -0.060415532
0.25847369 0.015562897 -0.069846176
0.2645618 0.014751877 -0.068808727
0.27440432 0.014827251 -0.067193434
0.28469411 0.015017528 -0.0657233
0.29471073 0.014844062 -0.06399475
0.30397573 0.015003721 -0.061844792
0.31394994 0.015680263 -0.060434092
0.32100001 0.01510483 -0.060117148
0.25700003 0.024915988 -0.069712088
0.26424095 0.024917154 -0.069015093
0.27423587 0.024946574 -0.067387745
0.28381023 0.025160566 -0.065598808
0.29481816 0.024601787 -0.06441965
0.30438039 0.025102299 -0.062448356
0.31379589 0.024972256 -0.060554184
0.25668001 0.035181817 -0.069680937
0.26313642 0.034694921 -0.068561651
0.27549455 0.034715168 -0.067785352
0.28392637 0.035205845 -0.065682411
0.29441679 0.035318933 -0.064353593
0.30443761 0.034784067 -0.062975243
0.31396967 0.035002951 -0.060995642
0.32100001 0.030961804 -0.060117148
0.25749996 0.044895075 -0.069814444
0.26372826 0.045307804 -0.068725511
0.27527592 0.044777207 -0.067649677
0.2843197 0.044828597 -0.065804392
0.29457748 0.045093477 -0.064147845
0.30527273 0.045143176 -0.062972955
0.31486368 0.044989251 -0.061259225
0.32080004 0.046789609 -0.060230244
0.25754541 0.055776499 -0.069802642
0.26429564 0.055106167 -0.068648674
0.27516884 0.055049207 -0.067403153
0.28373697 0.054913577 -0.065660208
0.29384512 0.055077966 -0.064018764
0.30418006 0.055249963 -0.063083649
0.31485915 0.055028208 -0.061521206
0.32100001 0.051349342 -0.060117148
0.25731111 0.064075768 -0.069667198
0.26479277 0.065480463 -0.068639934
0.27397883 0.064647064 -0.066883475
0.28454542 0.064746097 -0.065485328
0.29409325 0.065124184 -0.063682489
0.30435193 0.064834826 -0.0624539
0.31511125 0.064397231 -0.061499044
0.32189476 0.066621721 -0.060362458
0.25819999 0.076026224 -0.069758713
0.26396775 0.074828409 -0.068429612
0.27499983 0.075243227 -0.067018569
0.28343344 0.074969172 -0.065442055
0.29500005 0.074845888 -0.064345211
0.30417284 0.075605929 -0.062660411
0.31435594 0.074975833 -0.061070826
0.32252172 0.073341079 -0.060366642
0.25702226 0.084730245 -0.069803946
0.26470634 0.084957533 -0.06869819
0.27416092 0.085235231 -0.067078538
0.28377908 0.084916092 -0.065523915
0.29461196 0.085251875 -0.064341128
0.30424169 0.085022338 -0.062549166
0.31284097 0.084673569 -0.060692504
0.25818512 0.095855094 -0.069788754
0.26468626 0.094732732 -0.068920232
0.27447182 0.095206924 -0.067031369
0.28486812 0.095019013 -0.065335326
0.29432002 0.094329774 -0.063731216
0.30461904 0.094870344 -0.062248789
0.31460384 0.095248714 -0.060908139
0.32100001 0.097410075 -0.060117152
0.25747997 0.10303064 -0.069780722
0.26455206 0.10507361 -0.069026597
0.27422881 0.10478221 -0.067179389
0.28405797 0.10422777 -0.065204926
0.29420695 0.10520153 -0.063957125
0.30451456 0.10479778 -0.062708907
0.31394657 0.10443505 -0.06117326
0.32189995 0.10601605 -0.060359437
0.25799999 0.11468043 -0.069861285
0.26460612 0.11463912 -0.069059759
0.27446476 0.11515661 -0.0674325
0.28437835 0.11488494 -0.065813325
0.29406685 0.11530193 -0.0640774
0.30484912 0.11442381 -0.062862299
0.31422046 0.1152536 -0.06164518
0.32220003 0.11464262 -0.060446732
0.257 0.12937513 -0.06989482
0.26584432 0.1252895 -0.069116741
0.27466664 0.12503852 -0.067341127
0.28451261 0.1250765 -0.065739267
0.29391676 0.12476674 -0.063934609
0.30383936 0.12486722 -0.062268574
0.31529415 0.12476719 -0.061286774
0.32085714 0.12276001 -0.060197931
0.2583333 0.13525672 -0.069850855
0.26436794 0.13470371 -0.068964735
0.27450004 0.13486189 -0.067259543
0.28451443 0.13488249 -0.065568648
0.29480517 0.13472921 -0.063990347
0.30396557 0.13528463 -0.062194519
0.31471881 0.13519116 -0.061688371
0.32259527 0.13598517 -0.061062671
0.25695238 0.14434592 -0.069807306
0.26446664 0.14512873 -0.068896718
0.27397069 0.14480579 -0.06731566
0.28434417 0.1450448 -0.0658416
0.2944684 0.14514686 -0.064398192
0.3045505 0.14532772 -0.062649637
0.31333995 0.14480171 -0.060741369
0.32300001 0.14156471 -0.060578458
0.25722447 0.15583593 -0.069780163
0.26415214 0.15473731 -0.068863109
0.27465796 0.15480405 -0.067425422
0.28460014 0.15538315 -0.06572552
0.29434839 0.15530518 -0.063834764
0.30529293 0.15536872 -0.06179234
0.31007141 0.15452753 -0.060310688
0.25780556 0.1641963 -0.069657005
0.26422906 0.16551268 -0.068749167
0.27462035 0.1649498 -0.068021081
0.28391358 0.16543666 -0.065090358
0.2949048 0.16528231 -0.062372215
0.30123532 0.16236687 -0.060955565
0.25774992 0.17513697 -0.069811277
0.26440364 0.17522071 -0.06882523
0.27565742 0.1762583 -0.065975361
0.28310281 0.17405456 -0.063246384
0.29090002 0.17052537 -0.060706116
0.25698277 0.18613014 -0.069532298
0.26535961 0.18655309 -0.066354908
0.27324578 0.18354459 -0.06368167
0.25455552 0.19555673 -0.065990575
0.2619563 0.19202229 -0.063622966
0.25193542 0.20060822 -0.063660212
0.36900002 -0.36108679 -0.050878517
0.3761667 -0.36346501 -0.050735213
0.38321054 -0.3639074 -0.050559118
0.36430436 -0.3533712 -0.0517882
0.37468749 -0.35509059 -0.051603477
0.38245457 -0.35654852 -0.050605882
0.35665223 -0.34446254 -0.053404316
0.36393553 -0.34515774 -0.052303813
0.37437934 -0.34519076 -0.051097687
0.34788889 -0.33156005 -0.054330427
0.35464102 -0.3348608 -0.053300038
0.36497733 -0.33430743 -0.052424524
0.37367651 -0.33446634 -0.05056192
0.38362503 -0.33185163 -0.050299559
0.33436355 -0.3229098 -0.057440262
0.34429246 -0.32452822 -0.055548958
0.35469997 -0.32508364 -0.054157835
0.36545166 -0.32501644 -0.052975461
0.3739 -0.32493016 -0.051110506
0.38169235 -0.32650182 -0.050485604
0.33570495 -0.31634682 -0.058696203
0.34398121 -0.31549346 -0.056031644
0.3541905 -0.31659293 -0.055023368
0.36442035 -0.31539977 -0.053977732
0.37466007 -0.31501669 -0.051388077
0.38300002 -0.31036952 -0.050106056
0.32842857 -0.30146384 -0.059189666
0.33472547 -0.30485615 -0.057427291
0.34374079 -0.30531296 -0.05580708
0.35511437 -0.30417481 -0.055425219
0.36425006 -0.3049255 -0.053536873
0.37412193 -0.30567035 -0.051490538
0.38300008 -0.30463943 -0.050527953
0.30193335 -0.29316223 -0.058535147
0.32644188 -0.29432103 -0.058559917
0.33523813 -0.29519293 -0.056768961
0.34484008 -0.29456636 -0.056271747
0.35441467 -0.29463202 -0.054981876
0.36434889 -0.29522035 -0.053259563
0.37361535 -0.29483053 -0.051327325
0.38133335 -0.29810336 -0.050484717
0.30111593 -0.28506532 -0.058312148
0.31900001 -0.28064269 -0.059742589
0.32425815 -0.28477231 -0.058577266
0.333875 -0.2847394 -0.056986921
0.34439591 -0.28479043 -0.056253761
0.35468417 -0.28459126 -0.054738935
0.36372721 -0.28495318 -0.053003248
0.37467349 -0.28484666 -0.051258553
0.38214287 -0.2810348 -0.050377678
0.29700002 -0.27071965 -0.05946492
0.29999998 -0.27815878 -0.05900703
0.31833336 -0.27581063 -0.059741616
0.3245554 -0.27513966 -0.058845401
0.33457375 -0.27438083 -0.057734665
0.34436846 -0.27562687 -0.055809524
0.35597566 -0.27532488 -0.054631874
0.36412492 -0.27562407 -0.053279504
0.37495551 -0.27563268 -0.052163139
0.38235003 -0.27584392 -0.050648499
0.29714289 -0.2683517 -0.05954292
0.32545242 -0.26466501 -0.05961426
0.334548 -0.2651419 -0.057599805
0.34525001 -0.26486528 -0.055719238
0.35445237 -0.26475692 -0.054524682
0.36429027 -0.26428887 -0.053428818
0.37374997 -0.26519355 -0.051471423
0.382 -0.26881781 -0.050273191
0.31600001 -0.25756177 -0.059924077
0.32465115 -0.25449264 -0.05949774
0.33434615 -0.25500393 -0.057767954
0.34455559 -0.25480852 -0.056599922
0.3544926 -0.25495702 -0.055315763
0.36496291 -0.25472161 -0.052729324
0.37225005 -0.25616971 -0.050755017
0.32310349 -0.24692927 -0.059718996
0.33345613 -0.24525858 -0.058630396
0.34548149 -0.24472989 -0.058223508
0.35367262 -0.24595919 -0.055759404
0.36365619 -0.24702637 -0.053340729
0.3268182 -0.2348987 -0.059492167
0.33335 -0.23487583 -0.059211392
0.34332258 -0.23626462 -0.057750329
0.35033336 -0.23939647 -0.056545675
0.32557139 -0.22533154 -0.059740007
0.33197498 -0.22523256 -0.058457471
0.32800001 -0.21950588 -0.059884995
0.24900001 -0.16038932 -0.050342534
0.25066653 -0.16287489 -0.055312481
0.24900003 -0.15456572 -0.051386088
0.25044367 -0.15507884 -0.056702215
0.24900018 -0.14443661 -0.052080687
0.25021654 -0.14540103 -0.057209533
0.24886645 -0.13486807 -0.053385619
0.25 -0.1351501 -0.058287736
0.24870706 -0.12467812 -0.053523701
0.25 -0.12582406 -0.058316834
0.24835911 -0.11512692 -0.053960856
0.25 -0.11504697 -0.059000414
0.24855308 -0.10502278 -0.054887872
0.25 -0.1094785 -0.059561927
0.24831042 -0.094932139 -0.054994423
0.2481849 -0.084995337 -0.054963719
0.24813548 -0.075039752 -0.054910414
0.24771634 -0.064930148 -0.055018559
0.2473809 -0.055010945 -0.055003244
0.24702796 -0.045033749 -0.054988801
0.24658927 -0.035037208 -0.054931287
0.24690619 -0.025473773 -0.054775052
0.24800001 -0.019540779 -0.050529271
0.32387501 -0.010567017 -0.058926925
0.333 -0.010571784 -0.056881264
0.32411104 -0.0053124563 -0.059044119
0.33446029 -0.0050375885 -0.057083715
0.34480003 -0.0044234712 -0.054897785
0.35331821 -0.0036940088 -0.052505318
0.36466667 -0.0016631357 -0.051228229
0.37360001 -0.001839608 -0.050366722
0.31736365 0.0051945886 -0.059841588
0.32535145 0.0052870587 -0.059416089
0.3349193 0.0049370853 -0.058064055
0.34445831 0.0049145115 -0.056112915
0.35420001 0.0047424696 -0.053979773
0.36411765 0.0051386626 -0.05234123
0.37396669 0.0047777393 -0.051234711
0.38000005 0.0062606572 -0.050607465
0.31675002 0.010619216 -0.059878707
0.3245385 0.015504124 -0.059303377
0.33463475 0.015155692 -0.057954751
0.34426007 0.014890208 -0.056399945
0.35465911 0.014584287 -0.054960955
0.36400002 0.015141923 -0.053131428
0.37432614 0.014913731 -0.05116488
0.31900001 0.024390588 -0.059742592
0.32455942 0.025072452 -0.059080422
0.33476281 0.02532528 -0.05729327
0.34434608 0.024895521 -0.055399701
0.35446155 0.024700966 -0.054450102
0.36441669 0.024858169 -0.053598616
0.37442002 0.024771016 -0.051669609
0.38183334 0.02829699 -0.050401147
0.32428563 0.035391446 -0.058956772
0.33403996 0.034277424 -0.057082463
0.34457144 0.034719177 -0.055705331
0.35427031 0.036137592 -0.054493576
0.36508331 0.034607716 -0.053482935
0.37590477 0.034468155 -0.05279569
0.38317499 0.03542693 -0.051340688
0.32455397 0.044560548 -0.058776848
0.33470729 0.045307484 -0.057338767
0.34505397 0.045047365 -0.056500595
0.3538028 0.044959594 -0.054210309
0.3649545 0.045457885 -0.052620433
0.37373683 0.045279544 -0.052268662
0.3835898 0.044711437 -0.05135804
0.32481378 0.055209845 -0.059215695
0.33417648 0.05488202 -0.057523083
0.34452006 0.054911107 -0.056020126
0.35476598 0.054984137 -0.05436106
0.36348486 0.054918803 -0.05273008
0.3740302 0.054908998 -0.051592503
0.38295648 0.054734692 -0.050568476
0.32535896 0.064166829 -0.059338562
0.33442625 0.065245464 -0.057799175
0.34464288 0.06529288 -0.055792291
0.35448888 0.064641558 -0.054188982
0.36471429 0.065039933 -0.052832067
0.37369764 0.065280393 -0.051131655
0.38233337 0.061808184 -0.050416902
0.32638237 0.075682625 -0.059562102
0.33444068 0.074839629 -0.057931509
0.34478679 0.075049698 -0.055708468
0.35361111 0.074858971 -0.053742412
0.3642433 0.074783303 -0.052601844
0.37385005 0.075104825 -0.051078849
0.31762502 0.085424453 -0.059825782
0.32500017 0.084789842 -0.059369441
0.33560964 0.085284688 -0.058181908
0.34443116 0.084551126 -0.055877697
0.3538501 0.085355923 -0.054026745
0.36451176 0.085399337 -0.052505013
0.37343246 0.084192991 -0.050891485
0.31900001 0.090800047 -0.059742589
0.32492605 0.094975293 -0.059117842
0.33496371 0.094941579 -0.057681948
0.3446798 0.09525162 -0.056015063
0.35378185 0.09531673 -0.053931009
0.36429551 0.094804928 -0.052229349
0.37200001 0.095457666 -0.050717194
0.32665798 0.1042637 -0.059312288
0.33424562 0.10545352 -0.057733502
0.34501421 0.10536009 -0.055503413
0.35381824 0.10452828 -0.053281367
0.36399993 0.10531675 -0.051582579
0.37277269 0.10378518 -0.050438855
0.32709381 0.11545583 -0.059500478
0.33413094 0.1150755 -0.057240076
0.34475508 0.11448004 -0.054926556
0.35420409 0.11575253 -0.052995693
0.3642129 0.11485897 -0.051105075
0.37025002 0.11148357 -0.050179929
0.32480958 0.12493636 -0.059148841
0.33506504 0.12485799 -0.05683377
0.34476468 0.12579234 -0.053919878
0.35389552 0.12441286 -0.051697951
0.36033335 0.12078816 -0.05053116
0.32702339 0.13504651 -0.059130069
0.33551866 0.13571317 -0.055252869
0.34275004 0.13289139 -0.051800016
0.31702858 0.14770918 -0.059027854
0.32457221 0.14625944 -0.055513084
0.33292997 0.14285478 -0.053581368
0.30843335 0.15949801 -0.053823523
0.31386584 0.15495558 -0.055268828
0.32013053 0.15085797 -0.053340804
0.2966108 0.16762099 -0.054891568
0.30397499 0.16293906 -0.055217523
0.27808502 0.17830887 -0.055116355
0.28484881 0.17497145 -0.054810401
0.29226616 0.17123543 -0.0553088
0.2666378 0.18818142 -0.054729946
0.27366811 0.1834712 -0.055064727
0.25440717 0.19577844 -0.054258864
0.26233545 0.19196373 -0.055859439
0.25182608 0.20054653 -0.055999659
0.38614818 -0.37175015 -0.047147483
0.37700003 -0.36741993 -0.049319174
0.38585171 -0.36577895 -0.048508029
0.38444445 -0.35421181 -0.048516326
0.39285716 -0.35278592 -0.047297888
0.40000001 -0.35613725 -0.046684518
0.37816668 -0.34337083 -0.049473733
0.38347369 -0.34472537 -0.04850148
0.39525583 -0.3446354 -0.047725085
0.40000001 -0.3448461 -0.046684518
0.37828571 -0.33769089 -0.049489312
0.38477275 -0.33592474 -0.049636547
0.39471796 -0.33553472 -0.048441235
0.40000001 -0.33731869 -0.047625449
0.3863889 -0.32457876 -0.049334433
0.39442313 -0.32507423 -0.048350208
0.40000001 -0.32728216 -0.047939092
0.38446873 -0.31529927 -0.049587216
0.39450011 -0.31499377 -0.049131896
0.40000001 -0.31285459 -0.048095912
0.38825002 -0.30435178 -0.049650833
0.39567867 -0.30477491 -0.048202652
0.40000001 -0.30375898 -0.047625449
0.38447621 -0.29402971 -0.049433634
0.395087 -0.29473275 -0.048411585
0.38444448 -0.28586826 -0.049553439
0.39360005 -0.28441709 -0.048988886
0.40000001 -0.28337219 -0.048566375
0.38744447 -0.27599299 -0.049776107
0.39452636 -0.27481344 -0.048727442
0.40000001 -0.27568796 -0.047860678
0.37900001 -0.26076859 -0.049582753
0.38489476 -0.26506028 -0.049253792
0.39359999 -0.26839775 -0.04815533
0.37637499 -0.25663868 -0.049570132
0.3806667 -0.25833431 -0.048905343
0.24882203 -0.16236179 -0.043962795
0.25 -0.16459805 -0.048367791
0.2479966 -0.15477212 -0.045003109
0.24768202 -0.14499044 -0.044944149
0.24757405 -0.13501628 -0.045156807
0.24741307 -0.12512681 -0.045178082
0.24707492 -0.11499226 -0.045073587
0.24697985 -0.10496327 -0.045142587
0.24643038 -0.094965145 -0.044992272
0.24641831 -0.085074291 -0.044956595
0.24585696 -0.07487496 -0.044906985
0.24576896 -0.064988807 -0.044836186
0.24537151 -0.054995865 -0.044871833
0.2451572 -0.04486515 -0.044694904
0.24496382 -0.034930866 -0.044910122
0.24519417 -0.025481507 -0.045196004
0.24800001 -0.019540779 -0.049070835
0.37500003 -0.0039660907 -0.049941573
0.38157898 -0.0018595294 -0.048498482
0.38461903 0.0044019208 -0.04895515
0.39388892 0.0059911823 -0.047338758
0.40000001 0.0064960727 -0.046496332
0.38499999 0.014942289 -0.049456161
0.39471889 0.015179495 -0.047949623
0.38423342 0.024505081 -0.049268376
0.39408576 0.025308749 -0.047682479
0.40000001 0.026349634 -0.046684518
0.38772729 0.035121534 -0.049355447
0.39436835 0.034544315 -0.047557995
0.40000001 0.037640758 -0.046684518
0.38845 0.044822812 -0.049493525
0.39406067 0.044960909 -0.047924142
0.38790911 0.055207871 -0.049835801
0.39445451 0.054977883 -0.04834887
0.37900004 0.06909693 -0.049582753
0.3856923 0.065142214 -0.049371779
0.39446878 0.064669907 -0.047918677
0.40000001 0.065398112 -0.046684518
0.37900001 0.071771517 -0.049582753
0.38382143 0.075679898 -0.049305853
0.39467999 0.075887382 -0.048102792
0.40000001 0.074995562 -0.047437266
0.37727273 0.087331988 -0.049677551
0.38473687 0.084644496 -0.048754502
0.39512831 0.085190244 -0.046848215
0.40000001 0.084216654 -0.045743596
0.37668428 0.094185121 -0.049651217
0.38422728 0.095556758 -0.048082102
0.39456788 0.095997572 -0.044498786
0.40000004 0.093835019 -0.043129906
0.37688234 0.10708646 -0.048701581
0.38346824 0.10476614 -0.044481467
0.39040002 0.1005614 -0.041890718
0.36716664 0.11783224 -0.045003239
0.3736372 0.11291046 -0.04483493
0.35519555 0.12665613 -0.045128305
0.36268842 0.12189151 -0.045221772
0.3373538 0.13896365 -0.045028381
0.34427604 0.13444474 -0.04494673
0.35041377 0.13048109 -0.045160703
0.31900001 0.1497056 -0.046985969
0.32447115 0.14605685 -0.044670179
0.33239722 0.14148323 -0.045878571
0.30790541 0.15884499 -0.044697247
0.31463271 0.15421167 -0.045078442
0.32026669 0.15055098 -0.043454308
0.28791308 0.16877072 -0.041230451
0.29553613 0.16741082 -0.044710312
0.30290958 0.16290018 -0.045490969
0.277596 0.17869049 -0.044470917
0.28431949 0.17476259 -0.045053102
0.29126084 0.17126933 -0.047429465
0.26562399 0.18733749 -0.045009851
0.27343976 0.18259408 -0.045178697
0.25481212 0.19490483 -0.045158789
0.26091549 0.19048372 -0.044745822
0.25100002 0.2007491 -0.04936922
0.24672866 -0.16244881 -0.034881618
0.24629064 -0.15484139 -0.03511044
0.24592508 -0.14491948 -0.035015728
0.24597962 -0.13520534 -0.035087373
0.2452198 -0.12491922 -0.034973335
0.24522442 -0.11499513 -0.034945931
0.2451501 -0.1051249 -0.034930222
0.24458444 -0.095028378 -0.034920249
0.24446483 -0.084957287 -0.034792546
0.24435505 -0.074939638 -0.034897421
0.2440626 -0.065043241 -0.034796026
0.24364653 -0.05497152 -0.034708161
0.24365917 -0.04500873 -0.034927309
0.24323632 -0.034952994 -0.035047848
0.24321936 -0.025846399 -0.03501096
0.39530373 0.097212501 -0.034752123
0.40000004 0.094462305 -0.034766112
0.37738463 0.10806437 -0.033282049
0.38424745 0.10481042 -0.035664968
0.39093941 0.10095043 -0.034561887
0.36487499 0.11713885 -0.034875199
0.37382227 0.11251713 -0.035250705
0.34821421 0.12811415 -0.03328865
0.35460472 0.12486003 -0.035345647
0.36038885 0.12083025 -0.034926876
0.33658537 0.13873507 -0.034890715
0.34392551 0.13380389 -0.035090405
0.31861544 0.14966851 -0.034188531
0.32404149 0.14523463 -0.035011295
0.33140001 0.1406787 -0.034967724
0.3070606 0.15851904 -0.034468271
0.31379303 0.15379187 -0.035179455
0.32000002 0.15017492 -0.039229471
0.28761265 0.16809283 -0.035460006
0.29438463 0.16505118 -0.034914367
0.30238527 0.16178545 -0.0351968
0.27766946 0.17826135 -0.034723055
0.28376094 0.17392078 -0.03499167
0.258102 0.18930842 -0.033197954
0.26468691 0.18625279 -0.034844134
0.27356285 0.18202381 -0.035439029
0.25332576 0.19419961 -0.035229433
0.26122224 0.19011372 -0.038817145
0.24524841 -0.16264844 -0.024968218
0.24460413 -0.15491016 -0.02512786
0.24465662 -0.144876 -0.025074465
0.24464802 -0.13498615 -0.025107227
0.243635 -0.12478233 -0.025061229
0.2436136 -0.11499862 -0.024967084
0.24347812 -0.1049583 -0.025023807
0.24317096 -0.094921179 -0.024948897
0.24317743 -0.084992364 -0.024957469
0.24284445 -0.075080067 -0.025232689
0.24266055 -0.06482657 -0.025263803
0.24217598 -0.054928858 -0.025231224
0.24191695 -0.044793792 -0.025238253
0.24168091 -0.034994658 -0.024890255
0.24184243 -0.026219772 -0.025042851
0.30140004 -0.023746938 -0.020430109
0.30775404 -0.014153519 -0.022618335
0.30999997 -0.011591727 -0.026408976
0.31022581 -0.0087884078 -0.025449175
0.39451817 0.095716864 -0.024644095
0.40000004 0.091838159 -0.02523138
0.37518683 0.1070213 -0.024812756
0.3850145 0.10337581 -0.025165709
0.3907308 0.10089383 -0.025736649
0.36539626 0.11748408 -0.024675934
0.3714343 0.1126066 -0.025523288
0.34783825 0.12820907 -0.024247903
0.35475746 0.12376909 -0.025166795
0.36064291 0.1203468 -0.026577394
0.33706993 0.13795109 -0.024444297
0.34344617 0.1330779 -0.025512941
0.31758341 0.14903747 -0.024591738
0.32460245 0.14584565 -0.025401434
0.33214289 0.14181945 -0.02485691
0.30535328 0.15781136 -0.024712445
0.31228083 0.15285367 -0.025118239
0.28793243 0.16902471 -0.024592286
0.29430452 0.16527048 -0.025011204
0.30089179 0.16119489 -0.025393903
0.27592531 0.17679042 -0.025125483
0.28367811 0.17223945 -0.024999917
0.25767675 0.18900517 -0.024181234
0.26447344 0.18502836 -0.0251112
0.27110848 0.18074271 -0.024454461
0.25368071 0.19365968 -0.024945593
0.24455556 -0.16234697 -0.018572647
0.24458258 -0.15549225 -0.018083422
0.25211111 -0.15744106 -0.015653225
0.27663434 -0.15338136 -0.012856035
0.28022224 -0.15178883 -0.010439628
0.30116668 -0.15160237 -0.010354165
0.24443083 -0.14460453 -0.018156575
0.25050002 -0.14554442 -0.015192061
0.26866671 -0.14093117 -0.014818858
0.2753 -0.14645365 -0.013253319
0.28022221 -0.14878726 -0.010732361
0.30200002 -0.14882602 -0.010382814
0.24491476 -0.13590673 -0.01876175
0.26684132 -0.13418807 -0.013481244
0.27033335 -0.13180558 -0.011060175
0.29100001 -0.13074151 -0.010004632
0.24329337 -0.12446205 -0.018727116
0.26663277 -0.12492225 -0.014408535
0.27111638 -0.12718013 -0.011884615
0.28720695 -0.12393745 -0.011666609
0.29104346 -0.12451973 -0.010273373
0.24291594 -0.11529183 -0.018197993
0.2637251 -0.11590947 -0.014089617
0.2877501 -0.11439057 -0.011697321
0.29175866 -0.11530684 -0.010478791
0.24293521 -0.10471659 -0.018298224
0.252 -0.10462564 -0.015184429
0.28800002 -0.10927192 -0.011661966
0.29210806 -0.10460255 -0.010947611
0.243 -0.095851287 -0.018585881
0.29440004 -0.091341563 -0.010258901
0.24230005 -0.084996074 -0.019482737
0.28833333 -0.081048422 -0.011947706
0.292532 -0.085305639 -0.010961788
0.242 -0.07721395 -0.019705221
0.28843752 -0.07369943 -0.01197253
0.29046148 -0.076681361 -0.010694893
0.24200001 -0.060054805 -0.019705221
0.2886667 -0.068749331 -0.011338155
0.24200001 -0.059485544 -0.019705221
0.24100001 -0.041098658 -0.019623796
0.29165217 -0.046545599 -0.011460944
0.24095929 -0.034903277 -0.019076994
0.24117647 -0.02744435 -0.01943808
0.29900002 -0.027075959 -0.017664775
0.30136505 -0.023189699 -0.016865071
0.30395237 -0.018190762 -0.01848915
0.40000001 0.08986222 -0.017045315
0.38833332 0.098871715 -0.012012031
0.39327624 0.094661906 -0.015521058
0.40000001 0.090803139 -0.011870217
0.37581822 0.10752554 -0.015554142
0.38437492 0.10292022 -0.014701333
0.39000002 0.1006428 -0.018729214
0.35900003 0.1192864 -0.011286881
0.36462238 0.11600653 -0.01514032
0.3717728 0.11114424 -0.014403323
0.34672347 0.12770541 -0.014249984
0.35434383 0.1229146 -0.015368615
0.36000001 0.12067721 -0.017457871
0.32883334 0.13936549 -0.011434726
0.33534077 0.13712944 -0.014962142
0.34192994 0.13227554 -0.015098941
0.31726098 0.14830767 -0.014724813
0.32442188 0.14404349 -0.01487226
0.3305769 0.14108028 -0.017707415
0.30522591 0.15774375 -0.014872165
0.31230408 0.15244803 -0.014989901
0.28662837 0.16838396 -0.014392352
0.29445061 0.16466694 -0.014852766
0.30046159 0.16116062 -0.016394019
0.27560601 0.17711164 -0.0151326
0.28243557 0.17252558 -0.015144133
0.25718677 0.18883039 -0.014814986
0.26395234 0.1845164 -0.015048362
0.27128726 0.18088768 -0.014836689
0.24867994 0.19551121 -0.012201304
0.25267303 0.19322972 -0.015481149
0.27900001 -0.15553975 -0.0095920702
0.28126323 -0.15225269 -0.0093208672
0.30235192 -0.15221213 -0.0074033695
0.2825 -0.14918375 -0.0095459744
0.30328438 -0.14544787 -0.0071229083
0.29541668 -0.13254765 -0.0080621308
0.30157146 -0.13366568 -0.0055530528
0.29551473 -0.12535986 -0.0083421972
0.30246264 -0.12386214 -0.0052857297
0.29649991 -0.11613703 -0.0088306731
0.30362144 -0.11429845 -0.0060697803
0.29607692 -0.10482135 -0.0094827106
0.3058373 -0.10685291 -0.0072626872
0.31444678 -0.10468321 -0.0053903968
0.2967 -0.09352272 -0.0092930747
0.30579171 -0.09408319 -0.00802295
0.31431821 -0.095541716 -0.0053666527
0.29570836 -0.085502617 -0.0091796117
0.30429634 -0.086305827 -0.0077268844
0.31247136 -0.084580131 -0.0055327076
0.29138467 -0.074618042 -0.0089793364
0.30212501 -0.075326823 -0.007544335
0.31406674 -0.077569023 -0.005625078
0.289 -0.067979328 -0.0095959622
0.29014286 -0.069174469 -0.0091948658
0.31476909 -0.033927549 -0.0058223167
0.31357622 -0.026360003 -0.005767582
0.38558823 0.097885951 -0.0044214935
0.39414999 0.093817972 -0.0053653819
0.40000004 0.091367699 -0.0048132641
0.36833334 0.109414 -0.0017862482
0.37602222 0.10674287 -0.0040886928
0.38189223 0.10273155 -0.0065150606
0.35820007 0.11889214 -0.0052373265
0.36345115 0.11423057 -0.0049103526
0.37214288 0.11081993 -0.0076697576
0.34588701 0.12768947 -0.0048347432
0.35270008 0.12246413 -0.0050222743
0.32801893 0.13901263 -0.0049153049
0.33428946 0.13506076 -0.0047958042
0.3411364 0.13149431 -0.0066054091
0.31648716 0.1473583 -0.0047013732
0.32268736 0.14197391 -0.0050672134
0.30469799 0.1558895 -0.0048140921
0.3113651 0.15118697 -0.0064651635
0.28641438 0.16772141 -0.0049647135
0.2948263 0.16380179 -0.0049565528
0.30015391 0.16079329 -0.0063281828
0.26860005 0.17937838 -0.0013575447
0.27548173 0.17634827 -0.0047093593
0.28168711 0.17138259 -0.0050623976
0.25598672 0.18828642 -0.0049403477
0.26414049 0.18356358 -0.0049843346
0.27142864 0.18097398 -0.0077722175
0.24864765 0.19468492 -0.0059999246
0.25107273 0.19168 -0.004423541
0.40000007 0.08986222 0.0050664707
0.38453487 0.097742416 0.0049225558
0.39453325 0.092898242 0.004944982
0.36766669 0.10926384 0.0019205977
0.37507334 0.10489231 0.004905697
0.38000003 0.10056508 0.00034374365
0.35560676 0.11796934 0.0058127278
0.36373225 0.11353114 0.004306986
0.37093335 0.11107797 0.0084806783
0.34445783 0.12598944 0.005164003
0.35158336 0.12109052 0.0030449627
0.32661796 0.13851079 0.0046672514
0.33433911 0.1336204 0.0050520166
0.3160888 0.1468284 0.0052415412
0.32167032 0.14154564 0.0048345085
0.3046394 0.15552683 0.0050216019
0.31097963 0.15073183 0.0044299806
0.28597349 0.16755268 0.005418689
0.29416195 0.16313866 0.004912226
0.30031255 0.1606929 0.0037813908
0.26792541 0.17931025 0.005080705
0.27507779 0.17545827 0.0051770699
0.28135967 0.17097369 0.0040710047
0.25598654 0.18772323 0.0050742021
0.26306483 0.18321846 0.004789263
0.24811809 0.19392143 0.0051364712
0.25184843 0.19164345 0.0042418288
0.39703706 0.08895237 0.016611233
0.40000001 0.08798036 0.015887132
0.37779999 0.099211134 0.017877342
0.38396728 0.096739009 0.014613783
0.39334282 0.092256904 0.014890281
0.36899999 0.10966139 0.017983234
0.37403122 0.10476334 0.014778808
0.35536212 0.11713233 0.015153147
0.36422473 0.11262458 0.015171173
0.37054542 0.11082025 0.012299079
0.34440091 0.12522309 0.015098541
0.35049999 0.12037779 0.014745588
0.32814085 0.1384894 0.014972017
0.3335655 0.1336928 0.015224434
0.34050003 0.13078213 0.013613245
0.31420919 0.14662997 0.015017179
0.32350841 0.14197955 0.014973654
0.29687628 0.15813728 0.01626041
0.30478624 0.15408678 0.014723221
0.30999997 0.15058647 0.012677136
0.27900001 0.16965525 0.019613132
0.28507188 0.16694616 0.01500766
0.29272035 0.16176066 0.014671754
0.26774365 0.17919013 0.01530102
0.27451515 0.17423679 0.014952016
0.28015795 0.17032428 0.013432349
0.2489167 0.18927479 0.01832743
0.25456882 0.18675609 0.015692586
0.26232332 0.18238726 0.014394685
0.24738763 0.1925776 0.014728915
0.25031823 0.19090191 0.013072497
0.39592859 0.087760709 0.025054302
0.40000004 0.085745655 0.025649251
0.377875 0.098695181 0.024317233
0.38412872 0.09510804 0.025269074
0.39175615 0.091198877 0.02462812
0.36583564 0.10821643 0.02580815
0.37342483 0.10338038 0.024878735
0.34848714 0.11866632 0.026651306
0.3541941 0.11500785 0.024975922
0.3624889 0.11140507 0.023075024
0.338025 0.12849595 0.02719753
0.34378487 0.12440253 0.024658987
0.35033336 0.12045797 0.020369632
0.32628149 0.1379429 0.025126835
0.33445179 0.13345104 0.024786154
0.30800003 0.14923202 0.028571423
0.31450006 0.14634204 0.024922537
0.32202372 0.14160492 0.02484549
0.29645586 0.1576246 0.025071109
0.3043533 0.15306267 0.024939654
0.31 0.15058647 0.023250807
0.27838302 0.16930646 0.026429519
0.2849746 0.16611479 0.025041429
0.29180366 0.16134034 0.024422567
0.26616418 0.17781126 0.02527572
0.2737118 0.17308874 0.024778403
0.24865855 0.18939525 0.026216498
0.25424719 0.18610147 0.02496165
0.26166886 0.18165122 0.024934076
0.24750017 0.19237144 0.024946027
0.39589325 0.087144405 0.034925584
0.40000004 0.084404841 0.035458416
0.37899998 0.099408917 0.032883625
0.38363332 0.095624551 0.034944136
0.3915278 0.091077 0.035556473
0.35837501 0.10959411 0.038258541
0.36408895 0.10782753 0.034755547
0.37473676 0.10318217 0.034986578
0.34852943 0.11914609 0.032193333
0.35463318 0.11496766 0.035279706
0.36000001 0.1105152 0.032505356
0.3357999 0.12704337 0.035038836
0.34458038 0.12267112 0.034936059
0.35020003 0.1205221 0.038705204
0.32637215 0.13748883 0.03501635
0.33148125 0.13237038 0.034729932
0.30760387 0.14788418 0.035181075
0.31397226 0.14350387 0.034938175
0.32144678 0.14065123 0.03465328
0.29452357 0.15758631 0.035169378
0.30293101 0.15266603 0.034775198
0.27699998 0.16918048 0.036350679
0.28483871 0.16516837 0.034978062
0.29023808 0.16068789 0.034235056
0.26560974 0.17750219 0.035276055
0.27244172 0.17236048 0.034437098
0.24741405 0.18912221 0.035353914
0.25486502 0.18501481 0.035093132
0.26071802 0.18074742 0.034465179
0.24557382 0.1915082 0.034913346
0.38809091 0.089094721 0.048402715
0.39479768 0.086573407 0.044917483
0.40000004 0.083380274 0.045421787
0.37899998 0.099309862 0.046207026
0.38356701 0.095188461 0.045305062
0.39148003 0.091481693 0.042270269
0.35858336 0.10944694 0.042288747
0.36393052 0.10658318 0.045549359
0.37475294 0.10222367 0.044530828
0.34800002 0.11933201 0.047157679
0.35400593 0.11480253 0.044955924
0.33656102 0.12739871 0.045309421
0.34343696 0.12236012 0.04468511
0.35000002 0.12061832 0.041070513
0.3179 0.13969119 0.0484454
0.32626957 0.13622876 0.045341384
0.3313539 0.13124056 0.044463232
0.30685383 0.14779362 0.04486309
0.31280625 0.14266966 0.044880204
0.32252634 0.14065465 0.043497454
0.29451731 0.15729865 0.044856191
0.30222556 0.15235929 0.045266975
0.27603638 0.1683984 0.045157287
0.28469834 0.1641282 0.044905454
0.28999999 0.16080584 0.045702577
0.25850001 0.17968711 0.049791291
0.26489857 0.17724706 0.045234162
0.27154532 0.1723575 0.044626836
0.24725878 0.18869551 0.045001015
0.25458759 0.18405157 0.044913638
0.26010007 0.18021898 0.043888535
0.24499083 0.19145083 0.045803089
0.38638601 0.088328972 0.055550989
0.39443666 0.084848359 0.055346433
0.40000004 0.082738049 0.055742115
0.37783721 0.097944379 0.056930557
0.38156179 0.09382315 0.054316942
0.36400008 0.10655922 0.054749765
0.37356949 0.10162277 0.055128932
0.34647438 0.1185073 0.055290692
0.35463712 0.11367304 0.054841533
0.36000001 0.1105152 0.058757227
0.33589193 0.12653019 0.055511855
0.34135517 0.12175518 0.054358821
0.31624326 0.13975769 0.056628976
0.3250052 0.13591176 0.055249333
0.3316167 0.1311284 0.054055348
0.3066985 0.14776421 0.055748865
0.31228685 0.14306061 0.054311812
0.32100001 0.14007288 0.055034686
0.28783667 0.15898293 0.056925643
0.29406139 0.15566722 0.054865275
0.30225894 0.15159898 0.054321978
0.27577707 0.16845298 0.055227846
0.28387222 0.16383757 0.054790556
0.29000002 0.16065422 0.050743073
0.25838599 0.17940463 0.05431794
0.26376438 0.17590117 0.054982319
0.27148455 0.17212492 0.054910641
0.24731202 0.18804325 0.055512302
0.25399128 0.18354489 0.054912861
0.24518463 0.19083785 0.05472967
0.40000004 0.079512008 0.064972162
0.38645718 0.087981619 0.065257043
0.3944999 0.08292529 0.064955182
0.37592706 0.097072512 0.064818747
0.38169995 0.092256427 0.065038845
0.36523575 0.10696397 0.065317959
0.37145323 0.10201296 0.064706855
0.34669155 0.11780301 0.064699568
0.35428321 0.11326234 0.065218471
0.36085719 0.11085786 0.063504755
0.32900003 0.129389 0.065428466
0.33394217 0.12601677 0.064623535
0.34232345 0.12187446 0.065801971
0.31602672 0.13929404 0.065085456
0.32453877 0.13467401 0.064938433
0.33000001 0.1300274 0.06007091
0.29860002 0.14907502 0.068730563
0.30529609 0.14703555 0.065380685
0.31118032 0.14217959 0.064623997
0.2882266 0.15892807 0.065050125
0.29443789 0.15450814 0.065105297
0.30118185 0.15078658 0.062208112
0.27566078 0.16757482 0.065622687
0.28312153 0.16267149 0.064912438
0.25816673 0.17883882 0.066546194
0.26424995 0.17497513 0.06493409
0.27156985 0.17120047 0.064030282
0.24602041 0.18711777 0.065138765
0.25374824 0.18265444 0.064756773
0.24269998 0.19063537 0.064901672
0.39842859 0.079466462 0.074603431
0.40000004 0.078571089 0.075904839
0.3867901 0.087022364 0.074888729
0.39350709 0.08206895 0.075201377
0.37452334 0.097172953 0.075391226
0.3822895 0.092431799 0.074578859
0.35813165 0.1089645 0.075367406
0.36521742 0.1049541 0.075166859
0.37039995 0.10094263 0.073042266
0.34664518 0.11778712 0.075777836
0.3530497 0.1129736 0.074751876
0.32900003 0.1296334 0.074980177
0.33384484 0.12656771 0.075069226
0.34240195 0.12209356 0.074473649
0.31612876 0.13868728 0.074901842
0.32434326 0.13386221 0.074871957
0.29826316 0.1491053 0.075424865
0.30485409 0.14572148 0.075043216
0.3112469 0.14142333 0.075199984
0.28679436 0.15819204 0.075384043
0.29355896 0.15333515 0.074732445
0.26881254 0.16974375 0.078137815
0.27450949 0.16630779 0.0750314
0.28180477 0.16118975 0.074659199
0.25718883 0.17805508 0.074861549
0.26429325 0.17345756 0.074818738
0.27016667 0.17063864 0.071739368
0.2456886 0.18614025 0.075193234
0.25258368 0.18184873 0.074790627
0.24296775 0.19084942 0.07251031
0.39688465 0.07816954 0.08599209
0.40000007 0.076518163 0.084703118
0.38475004 0.0868138 0.085322745
0.39245763 0.082027666 0.08404462
0.36800003 0.0999863 0.089062318
0.3744866 0.095439456 0.085049294
0.38071436 0.090774074 0.082030989
0.35802132 0.10866928 0.085632078
0.36430344 0.1038351 0.08484824
0.33900002 0.11921977 0.089619465
0.34508598 0.11726579 0.085170791
0.35317653 0.11226985 0.085095853
0.32760561 0.12840673 0.086147346
0.33396471 0.12429162 0.084825508
0.34077144 0.12130661 0.083055615
0.31614855 0.13823229 0.08489608
0.32281989 0.13311142 0.084692597
0.2983585 0.14911446 0.084597558
0.30438939 0.14545372 0.085256077
0.31097153 0.14128458 0.084875949
0.27835 0.1596009 0.084847495
0.28580889 0.15824053 0.085249797
0.2932356 0.15316288 0.085136287
0.26838878 0.16917245 0.085865028
0.2738781 0.16454378 0.084753759
0.28157583 0.16055793 0.083548002
0.25682083 0.17803875 0.085514702
0.26380399 0.17320782 0.084805228
0.2440895 0.18594916 0.08514718
0.25228384 0.18109068 0.084268369
0.24100001 0.19020006 0.085821211
0.34818181 -0.34082544 0.093905978
0.34541225 -0.33422515 0.095616668
0.34625661 -0.32647359 0.096673019
0.3507733 -0.32277972 0.094830319
0.35244709 -0.31496698 0.096022241
0.35535082 -0.30517456 0.096348122
0.3618519 -0.30083656 0.096602492
0.36595836 -0.29682347 0.098210603
0.36766669 -0.28929448 0.09979251
0.38233334 -0.28354394 0.099475674
0.38392854 -0.27537718 0.09962637
0.38500002 -0.26897225 0.099968925
0.39661449 0.076964118 0.095083505
0.40000007 0.073301896 0.095395468
0.37758335 0.088969402 0.098485172
0.3846471 0.0864591 0.09486638
0.39175999 0.081758931 0.095533296
0.36850002 0.099579662 0.095793635
0.37454042 0.095035449 0.095133319
0.38030773 0.090736374 0.09303873
0.35696101 0.1080709 0.095454015
0.36329579 0.10328599 0.094930895
0.33866668 0.11936756 0.090593792
0.34430763 0.11577202 0.095249042
0.35219046 0.11137396 0.094087347
0.32632789 0.12759706 0.095077962
0.33445534 0.12298897 0.094854228
0.33999997 0.1204512 0.096282132
0.30861539 0.13935867 0.098561913
0.31521183 0.13681388 0.095082298
0.32222101 0.13220485 0.094613992
0.29720661 0.14875053 0.096024834
0.30379733 0.14411098 0.094881229
0.31143749 0.14081967 0.09260875
0.28612372 0.15705858 0.095164545
0.29205778 0.15181947 0.094836362
0.2680411 0.16914378 0.095311016
0.27390665 0.16461556 0.095172144
0.28142229 0.16082546 0.094450444
0.25560141 0.17764625 0.094833285
0.26334077 0.17309353 0.094909482
0.24446194 0.18534638 0.094931945
0.25087732 0.18121518 0.095131971
0.24100001 0.19020006 0.096592464
0.3411037 -0.33279455 0.1048371
0.34381151 -0.325692 0.10510861
0.35007161 -0.32205036 0.10525053
0.35128868 -0.31475535 0.10512805
0.35630178 -0.30615842 0.10524359
0.36137185 -0.30160066 0.10460932
0.36471841 -0.29503906 0.10519002
0.36801568 -0.28871375 0.10489397
0.37321132 -0.28390169 0.10500142
0.38075003 -0.28221315 0.10092366
0.37733012 -0.27537856 0.10657403
0.38161638 -0.27441728 0.10211169
0.37842864 -0.26940379 0.10786308
0.38444003 -0.26515746 0.1053367
0.39122227 -0.26164281 0.10355925
0.3882308 -0.25903955 0.10895589
0.39238918 -0.2550613 0.10610378
0.39340004 -0.24796367 0.1069333
0.39713797 0.077456564 0.10418423
0.40000004 0.07443101 0.10395791
0.3778148 0.088859268 0.10353769
0.38402298 0.085665777 0.10532393
0.39215094 0.081671335 0.10497566
0.36805269 0.099087819 0.10520268
0.37326771 0.094161905 0.10508209
0.34900001 0.10960122 0.10950323
0.35471138 0.10687362 0.10530432
0.36316878 0.10203967 0.10457672
0.33855563 0.11915115 0.10750778
0.34407291 0.11472395 0.10485917
0.3506 0.11043302 0.10109798
0.32553002 0.12713903 0.10531113
0.33494908 0.12253991 0.10504732
0.34 0.12037122 0.10028107
0.30780455 0.13818175 0.10506473
0.31417704 0.13456576 0.10505802
0.32233745 0.13183737 0.10398954
0.2960293 0.14776577 0.10509684
0.30338889 0.14291348 0.10484104
0.2786538 0.1596875 0.10512988
0.28484148 0.15698326 0.10511515
0.29107097 0.15182123 0.10489726
0.26729113 0.16729978 0.10527404
0.27468929 0.16318063 0.10490532
0.28 0.1603836 0.1066251
0.24856248 0.17964944 0.10726237
0.25494236 0.17661025 0.1053375
0.26285714 0.17237402 0.10468298
0.24406461 0.18449958 0.10517758
0.25196877 0.18049479 0.10159556
0.34217703 -0.33305031 0.11555144
0.34555876 -0.32499355 0.11477633
0.35000002 -0.32133517 0.11096964
0.34883028 -0.31821036 0.11554946
0.35199431 -0.31333917 0.11496056
0.35740861 -0.305742 0.11459722
0.36022854 -0.30101886 0.11590808
0.36449745 -0.29545137 0.11468466
0.36999992 -0.29145756 0.11736152
0.36899999 -0.28880128 0.11153492
0.37133545 -0.28415927 0.11517348
0.37627929 -0.27545369 0.11469825
0.38058829 -0.27070719 0.11794095
0.37866667 -0.2694459 0.11183378
0.38347152 -0.26477545 0.1148905
0.38783717 -0.25727537 0.11538704
0.39085725 -0.25240555 0.11473449
0.39312497 -0.2481371 0.11452831
0.39650002 0.078884803 0.11676095
0.40000007 0.077801235 0.11515494
0.37850004 0.089093693 0.116808
0.38346836 0.085068986 0.1151309
0.39302853 0.081132032 0.11358912
0.36624998 0.098246075 0.11569636
0.37417889 0.093397334 0.11494715
0.34858331 0.10919631 0.11606592
0.3547298 0.10537326 0.11509307
0.36162791 0.10096164 0.1141317
0.33648354 0.11829183 0.11536226
0.34397459 0.11339439 0.11487664
0.31857148 0.12959178 0.1187966
0.32455727 0.12658298 0.11522948
0.33176923 0.12185944 0.11438213
0.30665544 0.13793921 0.11520705
0.31458485 0.13355216 0.11522195
0.32045007 0.13078657 0.11252979
0.289 0.14990292 0.11821017
0.29500002 0.14726867 0.11546484
0.30211174 0.14235334 0.11438769
0.27809083 0.15878461 0.11467578
0.28443253 0.15423405 0.11496784
0.29046422 0.1509292 0.11185252
0.26652431 0.16718771 0.11550048
0.2734085 0.16241996 0.11498082
0.2483442 0.17953156 0.11539529
0.25447622 0.1755266 0.11507225
0.26251933 0.17124118 0.11446144
0.23900001 0.18862163 0.11603021
0.24303821 0.18379062 0.11497702
0.34220991 -0.33276087 0.12471039
0.34573108 -0.32528996 0.12508281
0.34788066 -0.3175948 0.12716177
0.35242641 -0.31372657 0.12452688
0.35752812 -0.30709767 0.12522732
0.36110005 -0.30202901 0.12521669
0.36559197 -0.29474616 0.12515314
0.36999995 -0.29088253 0.12280644
0.36900005 -0.28947639 0.12619455
0.37283903 -0.28508794 0.12505133
0.37746465 -0.27731228 0.12470424
0.38132915 -0.2726925 0.12553221
0.38607365 -0.26547578 0.12522481
0.39000005 -0.260692 0.12644486
0.38874075 -0.25737688 0.12231169
0.39078927 -0.25364074 0.12541994
0.3941291 -0.24889542 0.12443643
0.3883 0.079194829 0.12484839
0.39339626 0.077334784 0.12454043
0.40000004 0.075748317 0.12402654
0.37757701 0.088527985 0.1247367
0.38352334 0.083521828 0.12490863
0.36512503 0.097536393 0.12485483
0.37228921 0.092449576 0.12494077
0.34820449 0.1088285 0.12448218
0.35482812 0.10403872 0.12503293
0.36000001 0.10035319 0.12099956
0.33544612 0.1172849 0.12508994
0.34359816 0.11251427 0.12493156
0.31870002 0.12951025 0.12428731
0.32441908 0.12558104 0.12521645
0.33063638 0.12104965 0.12461551
0.30622295 0.13774776 0.12533134
0.31422496 0.13317728 0.12515204
0.289 0.14984113 0.12516287
0.29416475 0.14564575 0.12481367
0.30130988 0.14071131 0.12478621
0.27717358 0.15832983 0.12507565
0.28432721 0.15360218 0.1249688
0.29000002 0.15042163 0.1261231
0.26526946 0.16704905 0.12503874
0.27219656 0.16200404 0.12490922
0.24711765 0.17837252 0.12598597
0.25414717 0.1745996 0.12486501
0.26078129 0.17076702 0.12431945
0.23878376 0.18618791 0.12817506
0.24212478 0.18324484 0.12422948
0.25 0.18024866 0.12254667
0.34305102 -0.33368462 0.13529438
0.34424007 -0.32462046 0.13478576
0.34753641 -0.31603453 0.13509241
0.35169482 -0.31150103 0.13441356
0.35633534 -0.30667654 0.1353478
0.36069238 -0.30130947 0.13500944
0.36478463 -0.29476535 0.13496195
0.37 -0.29026085 0.13088834
0.36830005 -0.28892511 0.13738838
0.37225002 -0.28421241 0.1347802
0.3773908 -0.27615365 0.13558313
0.38088125 -0.27229524 0.13303345
0.37900004 -0.26938668 0.13912411
0.38445187 -0.2649093 0.13511622
0.39000002 -0.26030976 0.13911013
0.38883331 -0.25876826 0.13332035
0.39078614 -0.25399166 0.13474339
0.39273694 -0.24916406 0.13391604
0.38749999 0.078931905 0.13686901
0.39422214 0.076071031 0.13527986
0.40000004 0.073134623 0.13585533
0.37656522 0.088943213 0.13516237
0.38295943 0.083652861 0.1349356
0.36558387 0.096181646 0.13519335
0.3714667 0.091292687 0.13357612
0.34736928 0.10843086 0.13642648
0.35403958 0.10394561 0.13487515
0.36000004 0.1003532 0.13539574
0.33587509 0.11692553 0.13540947
0.34279999 0.11185253 0.13458987
0.31823081 0.12907349 0.13652492
0.32398948 0.12498376 0.13499968
0.33116668 0.12083981 0.13447061
0.30572388 0.13678171 0.1352143
0.31389141 0.13182238 0.13456678
0.289 0.14961964 0.13506402
0.29453981 0.14550418 0.13518716
0.30107409 0.14072618 0.13416144
0.275895 0.15794021 0.13556933
0.28395912 0.1530762 0.13483119
0.25873467 0.16926798 0.1358088
0.26502463 0.16664642 0.1350933
0.27150363 0.1617641 0.13412702
0.24821799 0.17829219 0.13493459
0.25418031 0.17374006 0.13501449
0.26000002 0.17033373 0.13081235
0.23891996 0.18561301 0.13132329
0.24336158 0.18231037 0.13433805
0.34303918 -0.33357543 0.14486812
0.34408501 -0.32481939 0.14512983
0.34740901 -0.31654716 0.14505722
0.35094744 -0.31181872 0.14594099
0.35505047 -0.30534437 0.14505623
0.36157507 -0.30191082 0.14411074
0.35900006 -0.2990841 0.14951658
0.36385128 -0.29519883 0.14506508
0.36654073 -0.28649908 0.14521945
0.372509 -0.28206286 0.14488664
0.37695459 -0.27513576 0.14503551
0.38000003 -0.27039546 0.14962183
0.37889478 -0.26937413 0.14360471
0.38359573 -0.26428819 0.14518198
0.39022219 -0.26068729 0.14426284
0.38900003 -0.25941357 0.14950532
0.39267379 -0.25552616 0.14517789
0.3937273 -0.24951562 0.14500959
0.39883336 0.069741853 0.14796753
0.40000001 0.06884817 0.1482442
0.38628891 0.078760996 0.14592974
0.39437699 0.074022844 0.14503473
0.40000001 0.070102744 0.14291228
0.37519357 0.086257368 0.14565022
0.3822121 0.08263129 0.14338899
0.35850003 0.099512808 0.14705953
0.36510262 0.095310397 0.14489892
0.37019998 0.090366192 0.14407811
0.34580737 0.10763784 0.14492522
0.35351458 0.10246209 0.14475584
0.3279286 0.11948478 0.14649749
0.3346034 0.11572541 0.14477895
0.34108889 0.11103713 0.14403176
0.31727791 0.12816885 0.1450993
0.32365578 0.12343095 0.14473811
0.33000001 0.12071222 0.1400262
0.30452341 0.13708287 0.14513499
0.31294686 0.13240473 0.14519125
0.2869679 0.14820901 0.14611748
0.29452154 0.14465357 0.14486508
0.30045459 0.14093697 0.14515716
0.27561665 0.15769923 0.14501716
0.28291464 0.15263748 0.14456703
0.259 0.16937396 0.1431035
0.26484501 0.16511658 0.14449716
0.27053437 0.161088 0.14443287
0.24900003 0.17806335 0.14021403
0.25517648 0.17221263 0.1419694
0.33900002 -0.33252758 0.15620536
0.34052852 -0.33216101 0.15441246
0.34319231 -0.32522491 0.15513527
0.34690276 -0.31486794 0.15480706
0.35129422 -0.31106725 0.15192771
0.34900001 -0.30972636 0.15711886
0.35472637 -0.30518568 0.15537211
0.35874471 -0.29839769 0.1545586
0.36291665 -0.29454738 0.15497866
0.36711973 -0.28584784 0.15505263
0.37032133 -0.28108481 0.15464334
0.37532279 -0.27642176 0.15503287
0.38041019 -0.27146649 0.15510671
0.37885714 -0.26881772 0.15961143
0.38361853 -0.26427796 0.15515113
0.39000005 -0.26008043 0.15722887
0.38857147 -0.25951892 0.15182127
0.3925606 -0.25530395 0.15518048
0.39200002 -0.24942677 0.15849623
0.39781821 0.069251724 0.15476471
0.40000004 0.068220899 0.15514433
0.37900001 0.079795279 0.15992643
0.38470462 0.077334635 0.15548305
0.39299998 0.072786659 0.15445605
0.37535247 0.085268021 0.15505953
0.38025007 0.080337808 0.15508679
0.35744235 0.098245852 0.15703128
0.3647027 0.094373196 0.15464059
0.36999997 0.090085395 0.15482317
0.34475836 0.10744105 0.15506548
0.35374174 0.10272749 0.15464923
0.3280001 0.1189555 0.15481222
0.33470884 0.11504386 0.1548766
0.34037042 0.1108344 0.15584296
0.3154178 0.12765011 0.15527697
0.32306254 0.12285629 0.15491994
0.29790619 0.13899344 0.15804921
0.30457246 0.13546191 0.15501426
0.31130356 0.13153662 0.15291421
0.28608888 0.14768048 0.15539029
0.29353589 0.14267436 0.15474828
0.30013332 0.14056894 0.1521097
0.27591938 0.15673207 0.1529837
0.28155914 0.15218516 0.1536501
0.26875004 0.16126141 0.15080829
0.27000001 0.16037175 0.15108661
0.34168857 -0.33259031 0.16524228
0.34453803 -0.32476461 0.16494909
0.34820941 -0.31761307 0.16447777
0.35080752 -0.31352541 0.16643167
0.35351837 -0.30358553 0.16430373
0.35871693 -0.29825255 0.16575901
0.36201978 -0.29375622 0.1648787
0.3666904 -0.28634253 0.16449748
0.37146977 -0.28130656 0.16573949
0.37570223 -0.27518934 0.16473663
0.37800011 -0.26772243 0.16506396
0.38316545 -0.26301083 0.1649344
0.38824242 -0.25934961 0.16460186
0.39129004 -0.25455838 0.16490467
0.39311117 -0.24890062 0.16639499
0.38866672 0.069335006 0.16918606
0.39562503 0.06890709 0.16726913
0.40000004 0.068325438 0.16523317
0.37900004 0.079795279 0.16170949
0.38435769 0.075372227 0.16510732
0.39525813 0.071633421 0.16360044
0.40000001 0.070102744 0.16596501
0.36766669 0.089515746 0.16832943
0.37541175 0.085747264 0.16487668
0.38046673 0.080938846 0.16746739
0.35714474 0.097583272 0.16461079
0.36382252 0.092701286 0.16496742
0.37000003 0.090085395 0.16309156
0.33900002 0.10949105 0.1684061
0.34458935 0.10674162 0.16531421
0.35248753 0.10201371 0.16490735
0.32774648 0.11846186 0.16561441
0.33397064 0.11377764 0.16484928
0.34050006 0.11098593 0.16205236
0.31506601 0.1271594 0.16512619
0.32279339 0.12201197 0.16489843
0.2978572 0.13815825 0.16335244
0.30482087 0.13447289 0.16526617
0.31069237 0.13103351 0.1645495
0.28766668 0.14510983 0.16112113
0.29373914 0.14221391 0.16289747
0.34250775 -0.33303553 0.17504105
0.34463125 -0.3249023 0.17586158
0.34805503 -0.31693009 0.17514062
0.35289884 -0.31178197 0.17551027
0.35739595 -0.3044993 0.174946
0.35855404 -0.29721394 0.17573464
0.36133629 -0.29305661 0.17464188
0.36566147 -0.2856167 0.17532295
0.3718605 -0.2812148 0.17393734
