# .PCD v0.7 - Point Cloud Data file format
VERSION 0.7
FIELDS x y z
SIZE 4 4 4
TYPE F F F
COUNT 1 1 1
WIDTH 1343
HEIGHT 1
VIEWPOINT 0 0 0 1 0 0 0
POINTS 1343
DATA ascii
0.19204469 -0.1052177 -0.080466084
0.17453381 -0.094594404 -0.083346397
0.18416235 -0.094981693 -0.081674047
0.19252649 -0.094843589 -0.080327675
0.17408411 -0.084983557 -0.083369672
0.18400323 -0.084592603 -0.081989974
0.1923541 -0.085340887 -0.080509081
0.17384951 -0.074555174 -0.083405696
0.18454373 -0.074885719 -0.081686057
0.19193491 -0.07527291 -0.080417491
0.17497687 -0.065230496 -0.083301671
0.18408886 -0.065304957 -0.081693597
0.19207639 -0.064838633 -0.080548972
0.17460681 -0.054755852 -0.083387293
0.18400349 -0.05516639 -0.081681065
0.19249341 -0.054847967 -0.080639392
0.17367002 -0.045296349 -0.083585657
0.18384603 -0.044231106 -0.081717677
0.19299991 -0.044996146 -0.080404669
0.2 -0.041869417 -0.080268346
0.17541836 -0.034971446 -0.083439
0.18419093 -0.034540087 -0.081807293
0.19227915 -0.035268847 -0.080550656
0.17523913 -0.025465978 -0.083421983
0.18405284 -0.025012167 -0.081788585
0.1926232 -0.025176063 -0.080504544
0.17361158 -0.013557427 -0.08352688
0.1853869 -0.014784487 -0.081838883
0.19183344 -0.015772251 -0.080461688
0.17423317 -0.0043405364 -0.083526768
0.18453594 -0.0043618414 -0.081794344
0.19171126 -0.0044695577 -0.080478087
0.17526971 0.0052845608 -0.083579361
0.18437822 0.0048695658 -0.08174926
0.19153613 0.0052810758 -0.080568857
0.2069 0.0073927655 -0.080164969
0.17331569 0.014887725 -0.083782755
0.18486683 0.014971826 -0.081652351
0.19236465 0.014159595 -0.080416441
0.20227784 0.017353268 -0.080295175
0.1739246 0.025280222 -0.083790675
0.18446371 0.024564078 -0.081702136
0.19277199 0.025881978 -0.080592118
0.20088634 0.023140179 -0.080472372
0.17443447 0.034792025 -0.083289579
0.18372184 0.035860758 -0.08188542
0.19280596 0.034858372 -0.081045963
0.17489815 0.045053583 -0.083712637
0.18477359 0.04634051 -0.082155839
0.19334061 0.045076732 -0.080942594
0.17407313 0.054958317 -0.083604462
0.18495218 0.054298259 -0.082164608
0.19335589 0.054849107 -0.08079163
0.17415908 0.064890496 -0.083510272
0.18398878 0.065439142 -0.082233809
0.19337195 0.065227769 -0.081054859
0.2015 0.067308128 -0.080158785
0.17395753 0.075046338 -0.083695851
0.18493991 0.076157145 -0.08228337
0.19200017 0.075517416 -0.080876894
0.20614287 0.076466508 -0.080284394
0.17387654 0.084449142 -0.083862722
0.18433784 0.08594729 -0.082352467
0.19252765 0.084832795 -0.08096455
0.17472975 0.095362186 -0.084118016
0.18335892 0.094352663 -0.081865825
0.19383813 0.09460444 -0.080643065
0.20088236 0.096682303 -0.080357201
0.17504118 0.10460393 -0.083892763
0.18471289 0.10355692 -0.081545115
0.19427538 0.10518719 -0.080690973
0.20205978 0.10461355 -0.08021339
0.17555584 0.11553185 -0.083785422
0.1836922 0.11661976 -0.081897497
0.19151118 0.11467657 -0.080652595
0.20427477 0.11569466 -0.08086732
0.1770786 0.12389377 -0.083046608
0.18444122 0.12486114 -0.081884839
0.19418173 0.12580568 -0.080853015
0.20163634 0.12310427 -0.080527246
0.18760003 0.13157915 -0.082004905
0.19576564 0.13378282 -0.08066614
0.20600002 0.13631399 -0.080124393
0.24700002 -0.2414362 -0.071011901
0.23826665 -0.23190312 -0.072981372
0.24522705 -0.23456849 -0.071390152
0.25052378 -0.23262237 -0.070265524
0.22550002 -0.22039776 -0.073262431
0.23558265 -0.2244803 -0.072799958
0.24446401 -0.22505873 -0.071513116
0.25052941 -0.22511926 -0.070197083
0.21838887 -0.2123912 -0.076088637
0.2243689 -0.2148889 -0.074387841
0.23420572 -0.21475701 -0.073019885
0.24425019 -0.2151957 -0.071620688
0.25171882 -0.21421261 -0.070666753
0.20747368 -0.20120472 -0.077273399
0.21519089 -0.20425273 -0.076209299
0.22351263 -0.20510355 -0.074589141
0.23479535 -0.20483595 -0.073152937
0.24421376 -0.20451738 -0.071778402
0.25210205 -0.20602176 -0.070530824
0.19701822 -0.19160324 -0.078879789
0.20538644 -0.19449639 -0.077558994
0.21442576 -0.19487922 -0.076079622
0.22378199 -0.19513771 -0.074485011
0.23392732 -0.19481769 -0.073212057
0.24471836 -0.19543475 -0.071825542
0.25169232 -0.19484727 -0.070612393
0.18870588 -0.18253066 -0.079860695
0.19484146 -0.18471821 -0.079361126
0.20438322 -0.18486504 -0.07780052
0.21454567 -0.18505926 -0.076241702
0.2236381 -0.18515091 -0.074416429
0.23487501 -0.18486445 -0.073086798
0.24442345 -0.18475723 -0.07154721
0.25109994 -0.18486482 -0.070686929
0.18800001 -0.179546 -0.079874605
0.19580539 -0.17529206 -0.079151057
0.20487635 -0.17508888 -0.07789053
0.21445419 -0.17503512 -0.076307766
0.22368853 -0.17511916 -0.074571691
0.23467669 -0.17484529 -0.073240511
0.24430503 -0.17509837 -0.071644127
0.25169092 -0.17462978 -0.070586756
0.26100004 -0.17221081 -0.070060581
0.18820839 -0.16539155 -0.079869531
0.19449322 -0.16518113 -0.079390749
0.20427108 -0.16512387 -0.078106806
0.21438505 -0.16506878 -0.076490484
0.22416484 -0.16512518 -0.074678741
0.23507437 -0.16508102 -0.07339821
0.2446617 -0.16496195 -0.071704805
0.25130236 -0.16573085 -0.070403121
0.18787885 -0.15243588 -0.079874419
0.19546498 -0.15519704 -0.079311982
0.20429835 -0.1547768 -0.078061506
0.21490292 -0.15543833 -0.07660798
0.22416286 -0.1549214 -0.074741639
0.23434901 -0.15490575 -0.073192798
0.24444619 -0.15494797 -0.071689352
0.25177056 -0.15447983 -0.07048814
0.18828575 -0.14757752 -0.079779267
0.19516119 -0.14531873 -0.079431072
0.20502339 -0.14563295 -0.078347705
0.21399568 -0.14515315 -0.076444432
0.2248345 -0.14521018 -0.074921347
0.23389025 -0.14482595 -0.073427528
0.24427277 -0.14554928 -0.072046913
0.25149372 -0.14462663 -0.071088895
0.19635518 -0.13559274 -0.079452217
0.20408989 -0.13496585 -0.078313425
0.21408534 -0.13490188 -0.07649558
0.22458835 -0.13505723 -0.075081334
0.234247 -0.13496275 -0.073486887
0.24525255 -0.13417242 -0.072152182
0.25235721 -0.13503981 -0.070795864
0.19612706 -0.12598029 -0.079602659
0.20423885 -0.12508817 -0.078572869
0.21380828 -0.1251179 -0.076555863
0.22473897 -0.12482347 -0.075201049
0.23434205 -0.12511456 -0.073670208
0.24449575 -0.12499439 -0.072207175
0.2540727 -0.12537223 -0.071001031
0.1961768 -0.11405251 -0.079495311
0.20478371 -0.11485479 -0.078144722
0.21457882 -0.11510629 -0.076335818
0.22490306 -0.11496833 -0.075125828
0.23382957 -0.11513872 -0.073435798
0.24456479 -0.11498071 -0.072255619
0.25382844 -0.11469588 -0.07087028
0.19639362 -0.10482625 -0.079428181
0.20460092 -0.10501296 -0.078112289
0.21406025 -0.10518481 -0.076448113
0.22483315 -0.10507333 -0.075185053
0.23390792 -0.10465773 -0.073284619
0.24467957 -0.10508521 -0.072101258
0.25385442 -0.10539299 -0.070847772
0.26000002 -0.10733388 -0.070099115
0.19684745 -0.095847584 -0.079529583
0.20440657 -0.095318459 -0.07833045
0.21401888 -0.095000133 -0.076706134
0.22398953 -0.094906077 -0.075413696
0.23467048 -0.095167592 -0.073335089
0.24407887 -0.09505792 -0.071599238
0.25269008 -0.095533453 -0.070693679
0.19696541 -0.083920099 -0.079306602
0.2043542 -0.085235022 -0.078095995
0.21395099 -0.084343836 -0.077096775
0.22407486 -0.085096739 -0.075264312
0.23461646 -0.084828705 -0.073179238
0.24466664 -0.084955744 -0.071643814
0.25124067 -0.084713422 -0.070613496
0.19686399 -0.075183265 -0.079285406
0.20387028 -0.074985892 -0.078119561
0.21446024 -0.074680738 -0.077028118
0.22364961 -0.075361334 -0.07531707
0.23435378 -0.074990965 -0.073625028
0.24422908 -0.074826017 -0.071779534
0.25145757 -0.07512363 -0.07056988
0.19723372 -0.064631023 -0.079353459
0.20399491 -0.064974129 -0.078268319
0.21510422 -0.065188095 -0.077059843
0.22381906 -0.064619377 -0.074928097
0.23511723 -0.065180473 -0.073733002
0.24447459 -0.065508336 -0.07227242
0.25076124 -0.065005213 -0.0710136
0.19665582 -0.05510712 -0.079363063
0.20416071 -0.054563634 -0.078633025
0.21456513 -0.055344068 -0.077067122
0.22433957 -0.05501058 -0.075376891
0.23438744 -0.054887086 -0.073166296
0.24734618 -0.057822898 -0.071512446
0.25 -0.059295714 -0.071127497
0.19755714 -0.04586 -0.079723291
0.20410477 -0.045080341 -0.078540742
0.21481173 -0.045006149 -0.077018961
0.22501776 -0.044766694 -0.075307041
0.23121524 -0.045081448 -0.072487839
0.1966334 -0.035182476 -0.079579331
0.20408861 -0.035154391 -0.07873667
0.2140276 -0.034781106 -0.07717438
0.22550014 -0.035169646 -0.075702481
0.23143658 -0.034674387 -0.072572604
0.19710244 -0.024702417 -0.079489022
0.2054919 -0.025314258 -0.078923881
0.21446101 -0.025095727 -0.077084206
0.22367916 -0.025130238 -0.075582713
0.23494287 -0.02536311 -0.073513143
0.24115379 -0.022453209 -0.071578048
0.19583476 -0.014785944 -0.079522371
0.20463876 -0.014791762 -0.078710198
0.21353495 -0.015037706 -0.077076562
0.225336 -0.014997882 -0.076084845
0.2351241 -0.015446632 -0.074600451
0.24434738 -0.014909186 -0.072017074
0.25033334 -0.010956495 -0.070501998
0.19664869 -0.0052083544 -0.079574183
0.20538761 -0.004390866 -0.078784436
0.21316318 -0.0055345288 -0.077440515
0.22378221 -0.005556169 -0.076084442
0.23438129 -0.0050930469 -0.074655637
0.2442867 -0.0050851181 -0.072543897
0.25279543 -0.0044353516 -0.07095851
0.19433333 0.0061007063 -0.079571247
0.20777918 0.0063096499 -0.079191752
0.2133368 0.0049580601 -0.07733167
0.22471938 0.0053372569 -0.076043852
0.23459488 0.0048555336 -0.074385099
0.24459131 0.004710238 -0.072746448
0.25458196 0.0051916759 -0.07119029
0.26000002 0.0067300186 -0.070099115
0.19488896 0.014617524 -0.079613149
0.2047829 0.0156473 -0.078548178
0.21489109 0.014192268 -0.07750465
0.22410646 0.014995355 -0.075854726
0.23408948 0.014981641 -0.0740107
0.24390621 0.013693917 -0.072876073
0.25523722 0.015296776 -0.071474448
0.2609334 0.014178721 -0.070226841
0.1937333 0.025268186 -0.079778925
0.20422885 0.025204876 -0.078663051
0.21346052 0.02524823 -0.0776655
0.22404565 0.025049506 -0.076255202
0.23336481 0.02477091 -0.073690295
0.24487749 0.026416562 -0.072375782
0.25349998 0.024197195 -0.071219809
0.26434621 0.025193492 -0.070451468
0.27000001 0.024137262 -0.070254728
0.19816659 0.035056133 -0.079802893
0.20422822 0.035014741 -0.078662507
0.21434844 0.035356358 -0.077354826
0.22451998 0.035258297 -0.075906299
0.23277277 0.034731615 -0.07375098
0.245207 0.034987789 -0.072397962
0.25392401 0.034651231 -0.070764497
0.26106247 0.038193237 -0.07034573
0.19806895 0.044679016 -0.079667926
0.20304596 0.045200601 -0.078548715
0.21370548 0.044455908 -0.077630937
0.22610874 0.045639019 -0.076577187
0.23326597 0.04475553 -0.074130751
0.24446426 0.044456217 -0.072769538
0.2528258 0.04554132 -0.071218476
0.2640264 0.044886738 -0.070489794
0.19803701 0.055082086 -0.079625614
0.20368817 0.053947393 -0.078846917
0.2139027 0.055624433 -0.077882104
0.22476627 0.05471674 -0.076143734
0.23461959 0.055187196 -0.074042775
0.24372265 0.054135036 -0.072686411
0.25502533 0.055429298 -0.071501113
0.26252946 0.053743947 -0.070194095
0.19741936 0.064780407 -0.079484962
0.20589229 0.065463044 -0.078959316
0.21401682 0.064583696 -0.077112772
0.22496922 0.064517304 -0.075845808
0.23466089 0.065148219 -0.073958151
0.24446583 0.065511458 -0.07251922
0.25448895 0.064626023 -0.07161852
0.26085722 0.067166232 -0.070270605
0.19667736 0.075451314 -0.079532534
0.20664681 0.075257763 -0.07874079
0.21424611 0.07531932 -0.077208497
0.22545068 0.075048737 -0.076183237
0.23417857 0.074956916 -0.074173309
0.24473174 0.0749759 -0.072566681
0.25324649 0.075198874 -0.071228892
0.26358205 0.075590484 -0.070939474
0.19824658 0.083978891 -0.079620063
0.20554033 0.08524403 -0.078738704
0.21322019 0.084533282 -0.077282183
0.22389339 0.085181862 -0.076250643
0.23418492 0.085064717 -0.074463189
0.24653378 0.085627444 -0.073023595
0.25395346 0.084947243 -0.071006708
0.26354849 0.084638469 -0.070438728
0.19492307 0.098371558 -0.079531781
0.20473675 0.094439737 -0.078961082
0.21392147 0.095884576 -0.0775529
0.22390258 0.094804972 -0.076215714
0.23531699 0.095333695 -0.074873231
0.24412067 0.09485472 -0.072867982
0.25403953 0.094872244 -0.070752323
0.26603705 0.093850471 -0.070400156
0.27166668 0.0977268 -0.070421405
0.18850002 0.10531323 -0.07986474
0.1974 0.10545661 -0.07974685
0.20533332 0.10463327 -0.078578144
0.2152573 0.10474231 -0.077076279
0.22397135 0.10477628 -0.075318888
0.23481241 0.10526431 -0.074375905
0.24429792 0.10471918 -0.072794728
0.25445834 0.10530466 -0.071416944
0.26295012 0.10466584 -0.070535779
0.27173686 0.10202023 -0.070468575
0.19381255 0.11371981 -0.079546496
0.20640764 0.11475214 -0.079008721
0.21474883 0.11506143 -0.077270553
0.22271968 0.11507683 -0.075384013
0.23567706 0.11485302 -0.074209578
0.2439159 0.11555414 -0.07229697
0.25423616 0.11510548 -0.07128606
0.26251113 0.11448735 -0.070248321
0.27200001 0.1177313 -0.070135295
0.19866671 0.12878089 -0.079794869
0.20439859 0.12511478 -0.079226136
0.21396826 0.12515971 -0.077740394
0.22296101 0.12558797 -0.075835951
0.23683453 0.12442233 -0.074184254
0.24446906 0.12391851 -0.071891367
0.25495237 0.12492174 -0.071308121
0.26471874 0.12597783 -0.070770502
0.19808333 0.13616449 -0.079128921
0.20537318 0.13595097 -0.079142787
0.21362324 0.1346263 -0.077369392
0.2249395 0.1357114 -0.075602829
0.2368563 0.13514514 -0.07431446
0.2446744 0.13437974 -0.072779939
0.25433767 0.13603064 -0.072160318
0.26176247 0.13499993 -0.071120247
0.19721429 0.14036724 -0.077292167
0.20629904 0.14209414 -0.076647379
0.21660902 0.14344302 -0.075088151
0.22488567 0.14395662 -0.073949955
0.23557763 0.1454289 -0.073685274
0.24349995 0.14669673 -0.07231424
0.25447762 0.14560705 -0.071758568
0.26127666 0.14443742 -0.070481218
0.23710005 0.15134463 -0.07192947
0.24530609 0.15181181 -0.070837721
0.25266665 0.15137847 -0.070715055
0.26130003 0.15089829 -0.070141219
0.30754548 -0.30137712 -0.060883131
0.31357893 -0.30172721 -0.060236774
0.30541173 -0.29541984 -0.06216538
0.31474069 -0.2958231 -0.06085851
0.32105562 -0.29369301 -0.060420282
0.29553336 -0.28254583 -0.062800594
0.30370364 -0.28524968 -0.061765045
0.31458133 -0.28522944 -0.060817853
0.32100001 -0.28768787 -0.060117148
0.27828574 -0.27161556 -0.065677024
0.28482297 -0.27456364 -0.064464152
0.29474148 -0.27495039 -0.063111261
0.3038474 -0.27503729 -0.061549086
0.31173533 -0.27474228 -0.060600765
0.333 -0.27063462 -0.060014553
0.26780003 -0.26164505 -0.067915209
0.27490485 -0.26457673 -0.066509098
0.28448227 -0.26525915 -0.065139413
0.29426134 -0.26503274 -0.063426837
0.30437681 -0.26474208 -0.061728228
0.31158823 -0.26579833 -0.060551081
0.32860002 -0.26365724 -0.060457945
0.33168182 -0.26683292 -0.060555723
0.25814286 -0.25247744 -0.068643026
0.26497465 -0.25442296 -0.067980319
0.27456003 -0.25445509 -0.066262618
0.28451404 -0.25481918 -0.065134615
0.29424185 -0.25521567 -0.063530542
0.30410457 -0.25509956 -0.06151168
0.31420001 -0.25424576 -0.060313832
0.32266667 -0.25477776 -0.060301479
0.24836363 -0.24242736 -0.069669969
0.25489533 -0.24459916 -0.069304608
0.26435113 -0.24516672 -0.068041898
0.27455854 -0.24506229 -0.066866562
0.28441679 -0.24505836 -0.064929508
0.29474688 -0.24478042 -0.063196205
0.30385908 -0.24529226 -0.061166253
0.31284374 -0.244479 -0.060516778
0.24800001 -0.23801464 -0.06978064
0.25495297 -0.23517148 -0.069483086
0.26486209 -0.23480044 -0.068324938
0.2750001 -0.23508288 -0.066544458
0.28457904 -0.23505954 -0.064983614
0.29389799 -0.23462103 -0.063213706
0.30419677 -0.23499994 -0.061418381
0.31105554 -0.23638058 -0.060407773
0.25543958 -0.22495934 -0.069236889
0.26474684 -0.22532777 -0.06829565
0.27416822 -0.22486806 -0.066989534
0.28427717 -0.22492413 -0.065363713
0.29453537 -0.22536924 -0.063617252
0.30382779 -0.22481154 -0.061539207
0.31376478 -0.22403905 -0.060298301
0.32122225 -0.22168538 -0.060326047
0.25570095 -0.21539548 -0.069292881
0.26465282 -0.21471962 -0.06862969
0.27394056 -0.21535592 -0.067228451
0.2843253 -0.21517961 -0.065242231
0.2950308 -0.21501441 -0.063796639
0.30325332 -0.21562932 -0.061758049
0.31484991 -0.21504028 -0.060885906
0.32163635 -0.21742843 -0.060508337
0.33587503 -0.21696103 -0.060330398
0.34 -0.21793912 -0.060476329
0.25645754 -0.20472214 -0.069568537
0.26515827 -0.20459759 -0.068369702
0.27475002 -0.20484607 -0.066381201
0.28467616 -0.2049731 -0.064944737
0.29444188 -0.20504965 -0.063498184
0.30388582 -0.20508 -0.061815515
0.31200001 -0.20447794 -0.060928125
0.25594872 -0.19505008 -0.069525369
0.26480556 -0.1951143 -0.06840612
0.27411723 -0.19473086 -0.066655278
0.28490114 -0.19485526 -0.065172844
0.29421058 -0.19500017 -0.063596271
0.30449146 -0.19505662 -0.06254074
0.31435066 -0.195173 -0.061119858
0.32100004 -0.19580665 -0.060117148
0.25563848 -0.18480642 -0.06945204
0.26402226 -0.18642311 -0.068507954
0.27486062 -0.18538952 -0.067403451
0.28464708 -0.18455294 -0.065586999
0.29442516 -0.18522398 -0.063899487
0.30411115 -0.18513703 -0.062334675
0.31467924 -0.18567777 -0.061340172
0.32305413 -0.18439277 -0.060436662
0.255092 -0.17588785 -0.069290996
0.26507965 -0.17473312 -0.068801813
0.27452511 -0.17502318 -0.06731981
0.28527468 -0.17495061 -0.065817982
0.29359096 -0.1747714 -0.063575044
0.3038412 -0.17466947 -0.062009893
0.31585366 -0.17467523 -0.061467968
0.32184002 -0.17550224 -0.060758092
0.25568181 -0.163738 -0.069626071
0.26464006 -0.16519178 -0.068779334
0.27435166 -0.16509037 -0.067248538
0.28470132 -0.16520907 -0.065797903
0.29526535 -0.16510904 -0.064208806
0.30310711 -0.16513295 -0.062119789
0.31518871 -0.16473214 -0.061342418
0.32272726 -0.16589212 -0.0603645
0.33200002 -0.16182399 -0.060167689
0.2563732 -0.15512677 -0.069628365
0.26437083 -0.15480003 -0.06858138
0.27447379 -0.15505475 -0.06699495
0.28447992 -0.15500984 -0.065891355
0.29428577 -0.1551664 -0.064337686
0.30456448 -0.15455809 -0.0619969
0.31368577 -0.15583874 -0.060892023
0.32435286 -0.15428139 -0.060738236
0.33000001 -0.15874313 -0.060250148
0.2558924 -0.14496458 -0.069727384
0.26420003 -0.14487144 -0.068476893
0.27441767 -0.14493544 -0.066760093
0.28512275 -0.14448771 -0.065544747
0.29432264 -0.14502789 -0.063901447
0.3034445 -0.14557642 -0.062187523
0.31436166 -0.14470477 -0.061731994
0.32187495 -0.14569023 -0.060750484
0.25716981 -0.13498239 -0.069698349
0.26485699 -0.13513801 -0.068772539
0.27384976 -0.13496937 -0.066722751
0.28429171 -0.13498719 -0.065344952
0.29441547 -0.13508803 -0.063870274
0.30427778 -0.13483937 -0.06272997
0.31477934 -0.1347412 -0.061544679
0.32236004 -0.13400373 -0.06039913
0.25809994 -0.12423651 -0.069646344
0.264204 -0.12525482 -0.068791576
0.27427122 -0.1249607 -0.067107998
0.28470281 -0.12502895 -0.065383017
0.29410595 -0.12496097 -0.06376154
0.30463168 -0.12465816 -0.062646277
0.31460941 -0.12519498 -0.061662585
0.32247061 -0.12750375 -0.060568564
0.2581428 -0.11593151 -0.069749184
0.26420206 -0.11457349 -0.068896256
0.27423435 -0.11528241 -0.0670949
0.28478867 -0.11484032 -0.065534562
0.29391575 -0.11540724 -0.063787505
0.30486789 -0.11500596 -0.062526241
0.31299996 -0.11606836 -0.061113779
0.25830773 -0.10318132 -0.069828853
0.26395917 -0.10514708 -0.068829663
0.27486369 -0.10509456 -0.067175075
0.28438383 -0.10508326 -0.065048628
0.29480439 -0.10439109 -0.063272089
0.3027429 -0.1065083 -0.061309882
0.25689992 -0.094456494 -0.069622084
0.26505259 -0.094832242 -0.068702303
0.27382895 -0.096007302 -0.066908881
0.28545633 -0.094356261 -0.06557893
0.29279456 -0.097005367 -0.062853627
0.25540006 -0.085239686 -0.069775864
0.26495582 -0.08512833 -0.068784691
0.27420953 -0.083733857 -0.066139013
0.28282461 -0.087547809 -0.063874811
0.25622419 -0.074442081 -0.069668986
0.26495489 -0.074600548 -0.066372581
0.27133337 -0.078213304 -0.065027311
0.24872731 -0.060394336 -0.065732293
0.25505659 -0.065568954 -0.066427641
0.26075006 -0.069257692 -0.064063072
0.23722856 -0.0511402 -0.065085351
0.24438006 -0.056667771 -0.06419912
0.22869921 -0.042229377 -0.06403362
0.2313402 -0.045953616 -0.06563101
0.22870176 -0.038594481 -0.062502034
0.23223552 -0.03417946 -0.06545274
0.23741309 -0.027447637 -0.064774871
0.24145874 -0.022510216 -0.065301664
0.2458795 -0.016298875 -0.064845584
0.25045073 -0.011351975 -0.065575518
0.25493318 -0.0052822172 -0.065043636
0.26000002 -0.00030341229 -0.064594686
0.25900003 0.0014036555 -0.069524862
0.26271757 0.0051692035 -0.06515386
0.259 0.019193765 -0.069829494
0.26649374 0.013594767 -0.066935688
0.27210447 0.016938696 -0.064337648
0.26703712 0.025838923 -0.069689281
0.27521768 0.024378462 -0.066111602
0.28128579 0.028951718 -0.063850753
0.25828573 0.032334648 -0.069852814
0.26490003 0.034303453 -0.069605239
0.27494639 0.03480323 -0.068358637
0.2839264 0.034100313 -0.065297976
0.29379556 0.037791375 -0.064638928
0.30480003 0.038587399 -0.062091384
0.25433335 0.045170367 -0.069966234
0.26656523 0.044255532 -0.06976559
0.2746565 0.045126721 -0.068869464
0.28528571 0.04490668 -0.066905461
0.29357329 0.044614654 -0.064537011
0.30481172 0.044536427 -0.062470835
0.31303033 0.046810299 -0.060848013
0.32133332 0.048757877 -0.060179576
0.26593447 0.055899635 -0.069588877
0.27330992 0.055690937 -0.068516292
0.28565526 0.05441723 -0.067744061
0.29338899 0.05517948 -0.065201879
0.30449331 0.054773089 -0.063108332
0.31367397 0.054886978 -0.061302096
0.32220688 0.054818939 -0.060444634
0.259 0.06092741 -0.069829494
0.26452386 0.064704552 -0.069454528
0.27495235 0.065367177 -0.068639047
0.28450003 0.066200286 -0.067604706
0.29435551 0.065088123 -0.065764315
0.30376565 0.064753205 -0.063112319
0.31452832 0.064749956 -0.061965466
0.32179314 0.065451093 -0.060785931
0.26710173 0.074770488 -0.069273047
0.27479994 0.074622624 -0.06827981
0.28341058 0.074731514 -0.06664446
0.29473501 0.074703179 -0.06505207
0.30432308 0.075612709 -0.063184239
0.31449184 0.075209148 -0.061715249
0.32150003 0.074160732 -0.060776807
0.26783788 0.083806969 -0.069417559
0.27325007 0.084952667 -0.068115562
0.28353065 0.083291017 -0.066743389
0.29541564 0.084783852 -0.065675549
0.30438784 0.085314028 -0.063143402
0.31387702 0.084569313 -0.060921464
0.32100004 0.084271446 -0.060117148
0.25300002 0.094926588 -0.069997236
0.26833335 0.092158437 -0.06982106
0.27410787 0.094870195 -0.068416215
0.28423408 0.096490607 -0.067123011
0.29516283 0.094911449 -0.066141814
0.30404878 0.094701432 -0.063044421
0.31455564 0.095012709 -0.061039548
0.32100001 0.092501968 -0.060117152
0.26632357 0.10710663 -0.069662087
0.27506006 0.10504392 -0.068745561
0.28445056 0.10520385 -0.066643082
0.29473239 0.10454185 -0.065030374
0.30451864 0.10489981 -0.063121416
0.31476474 0.10485473 -0.061184652
0.32100001 0.10949158 -0.060117148
0.26649994 0.11517464 -0.069841295
0.2751666 0.11522748 -0.068541914
0.28402382 0.1149357 -0.066560455
0.29500005 0.11532769 -0.065315828
0.30417451 0.11457728 -0.063551463
0.31508008 0.11495911 -0.062007312
0.32146433 0.1162668 -0.060741935
0.26817861 0.12487084 -0.069621004
0.27484787 0.12486863 -0.068091422
0.28361019 0.12481327 -0.065904327
0.29482147 0.12488073 -0.065336548
0.3047033 0.12504077 -0.063478895
0.31397444 0.12446947 -0.061359841
0.32170591 0.12221368 -0.060469627
0.26672301 0.13490021 -0.069309786
0.27384123 0.13265249 -0.067455694
0.28492984 0.13439101 -0.066086695
0.29491308 0.13556561 -0.064844094
0.3055132 0.13447744 -0.063446902
0.31110647 0.13596256 -0.061328188
0.33800003 0.13795008 -0.06012059
0.34 0.13956614 -0.060476329
0.20866668 0.14324789 -0.061985355
0.21116669 0.1437609 -0.061648872
0.2658228 0.14498074 -0.069216624
0.27404916 0.14612262 -0.067656815
0.2846905 0.14694768 -0.067359008
0.29466966 0.14524743 -0.065784007
0.30426773 0.14498638 -0.062890448
0.3134906 0.14421569 -0.061429609
0.32400003 0.14662686 -0.06050257
0.33514288 0.14804621 -0.060284816
0.34382051 0.14582036 -0.061425678
0.237 0.15191525 -0.069376193
0.24512503 0.15423065 -0.069533899
0.25457537 0.15461153 -0.0690687
0.26493368 0.15611096 -0.067448869
0.27162316 0.15412742 -0.065470248
0.28540909 0.15254472 -0.065959893
0.29501727 0.15445039 -0.065808356
0.30425581 0.155654 -0.063933685
0.3142812 0.15529853 -0.061807383
0.32516128 0.15622786 -0.060743269
0.33205003 0.15622278 -0.060310513
0.29612306 0.16571894 -0.064453244
0.30253005 0.16343606 -0.062265903
0.31481391 0.16373524 -0.061258256
0.32235494 0.1637131 -0.060414802
0.33149999 0.16024706 -0.060132351
0.29611111 0.17100459 -0.063344307
0.3175 0.17028663 -0.060208529
0.32124999 0.17078623 -0.060163967
0.34857145 -0.34127173 -0.05497222
0.35100001 -0.34276924 -0.052013468
0.33833337 -0.33147573 -0.05646557
0.34606659 -0.33446309 -0.054944515
0.35243902 -0.334786 -0.051745661
0.36497444 -0.33393213 -0.051595755
0.37306681 -0.33400431 -0.050616387
0.38383338 -0.3322604 -0.050215077
0.32820001 -0.32108203 -0.057449229
0.33475009 -0.32389426 -0.05627472
0.3447797 -0.32469961 -0.054801498
0.35450006 -0.32518986 -0.053021148
0.36548492 -0.32562247 -0.052264288
0.37375006 -0.32530394 -0.050869681
0.38111112 -0.32636595 -0.050454862
0.3186 -0.31124187 -0.059067361
0.32511365 -0.31382158 -0.057420876
0.3346667 -0.31468859 -0.056618605
0.34373203 -0.31473732 -0.05470464
0.35555178 -0.31405899 -0.053983893
0.36407852 -0.31483254 -0.052474823
0.37374192 -0.31471199 -0.050677087
0.31682047 -0.30489215 -0.059481993
0.3237797 -0.30525199 -0.058243476
0.33459023 -0.30479479 -0.057001822
0.34287497 -0.30535573 -0.055134937
0.35534608 -0.30426481 -0.054402612
0.36539543 -0.30443931 -0.052233037
0.37295455 -0.30479911 -0.050502304
0.38300002 -0.3009097 -0.050106056
0.31900001 -0.29890215 -0.059492458
0.32455006 -0.29540184 -0.058981426
0.33427122 -0.29532158 -0.057330176
0.34486115 -0.29469395 -0.056197364
0.35399997 -0.2946997 -0.054320484
0.36466661 -0.29542637 -0.052255519
0.37437138 -0.29540673 -0.050809477
0.38206249 -0.29405203 -0.050262738
0.31866667 -0.28147462 -0.059680164
0.32460004 -0.28523952 -0.05881488
0.33390003 -0.28489444 -0.057264648
0.34459621 -0.28498486 -0.055921927
0.35541666 -0.28439111 -0.05438121
0.36384445 -0.28477043 -0.052787546
0.37435558 -0.28457695 -0.051335786
0.38000003 -0.28872001 -0.050607461
0.31685299 -0.27414423 -0.059381079
0.32448083 -0.27499306 -0.058282085
0.33462715 -0.27417895 -0.058099739
0.34373912 -0.27515212 -0.055929996
0.35543746 -0.27524209 -0.054882307
0.36502391 -0.27592865 -0.053677503
0.37498307 -0.27542156 -0.051784452
0.38000003 -0.27084237 -0.050607461
0.31624255 -0.26544562 -0.059379533
0.32278576 -0.26710045 -0.059040029
0.33568108 -0.26501322 -0.05801785
0.34423262 -0.2653895 -0.055872999
0.35516661 -0.26438227 -0.054744266
0.36553127 -0.26409501 -0.053484201
0.37421048 -0.26500669 -0.051753264
0.38240007 -0.26515126 -0.050493423
0.30820006 -0.25221857 -0.059531711
0.31223077 -0.25674927 -0.059546962
0.32642311 -0.25344089 -0.059119839
0.33492979 -0.25533998 -0.057671152
0.34418187 -0.25475308 -0.056339644
0.35433334 -0.25517687 -0.055454936
0.36446342 -0.25474426 -0.053276982
0.37523529 -0.2551026 -0.051732719
0.38235715 -0.25633571 -0.050534587
0.30728576 -0.24808355 -0.059613727
0.31716669 -0.24388181 -0.05968792
0.32497734 -0.24463162 -0.059153542
0.33376473 -0.24535742 -0.05788146
0.34566665 -0.24500383 -0.057102345
0.35438779 -0.24487126 -0.055203438
0.36453134 -0.24439254 -0.053736571
0.37375671 -0.24458604 -0.051125024
0.31564695 -0.23446602 -0.059721962
0.32482055 -0.23559284 -0.059082899
0.33506671 -0.23506731 -0.057490449
0.3436957 -0.23593816 -0.056594621
0.35654172 -0.23530708 -0.056110661
0.36494544 -0.2354923 -0.053899847
0.37413993 -0.23522887 -0.05121078
0.38211113 -0.23134317 -0.050487414
0.31650001 -0.22733243 -0.059781894
0.32464701 -0.2248669 -0.058736283
0.33420005 -0.22425164 -0.057540208
0.34384 -0.22344206 -0.057154354
0.3547436 -0.22419316 -0.054596502
0.36384007 -0.22523569 -0.053210191
0.3736923 -0.22561932 -0.052263059
0.38463417 -0.22530866 -0.051395595
0.39090005 -0.22619848 -0.050220054
0.31900001 -0.21123166 -0.059742589
0.32370836 -0.21650617 -0.059446841
0.33464706 -0.21563065 -0.059241366
0.34475005 -0.21531166 -0.057021186
0.3545526 -0.21489242 -0.053993374
0.36479166 -0.21501304 -0.053227883
0.37491176 -0.21440807 -0.052699748
0.38243484 -0.21611848 -0.051201824
0.31529167 -0.20392223 -0.059570298
0.32543477 -0.20303573 -0.059345461
0.33494592 -0.20474562 -0.058421098
0.3447879 -0.2052781 -0.056279581
0.35325003 -0.20514439 -0.054356162
0.36492854 -0.20496343 -0.054023724
0.3752881 -0.20495546 -0.052109238
0.31600001 -0.19957669 -0.059774
0.32484779 -0.19451164 -0.059354041
0.33443856 -0.19513284 -0.057945114
0.34507555 -0.19477995 -0.056409389
0.35370588 -0.19482137 -0.055004146
0.36469698 -0.19501908 -0.053943418
0.37382144 -0.19472806 -0.051595807
0.38279995 -0.19305639 -0.050169278
0.32714292 -0.18547884 -0.05942471
0.33417389 -0.18539284 -0.058303829
0.34428331 -0.18480304 -0.056586783
0.35406253 -0.18477997 -0.054591488
0.36451358 -0.18494605 -0.05345042
0.37423521 -0.18593885 -0.051957287
0.38454759 -0.18442537 -0.051338725
0.39025003 -0.18313435 -0.050251219
0.32500008 -0.1746631 -0.059312392
0.33535707 -0.17459083 -0.058327764
0.3445161 -0.17515434 -0.056487646
0.35432661 -0.1744817 -0.054613747
0.36400002 -0.17577885 -0.053111967
0.37306669 -0.17406717 -0.052899558
0.38512194 -0.17542285 -0.051901311
0.39062503 -0.17642245 -0.050184719
0.32366678 -0.16544951 -0.059497699
0.33571419 -0.16527183 -0.058789995
0.34464002 -0.1652216 -0.056883659
0.35516673 -0.16529696 -0.054894879
0.36446431 -0.16410807 -0.053186376
0.37454164 -0.16451819 -0.052151009
0.38337502 -0.16547857 -0.05086581
0.32809094 -0.15228146 -0.059549809
0.3343519 -0.15506285 -0.05844469
0.3440001 -0.15498096 -0.056817677
0.35556671 -0.15510049 -0.055374689
0.36388379 -0.15459189 -0.053052321
0.37382355 -0.15453029 -0.051253911
0.38150001 -0.1588344 -0.050356761
0.3268126 -0.14423846 -0.059352964
0.33455321 -0.14522853 -0.058210313
0.34554845 -0.14502494 -0.056920908
0.35465005 -0.14619511 -0.055357434
0.36390913 -0.14749716 -0.053127028
0.37140003 -0.14825518 -0.051295768
0.32665789 -0.13574976 -0.059433874
0.33451426 -0.13400765 -0.056881484
0.34296006 -0.1375792 -0.055735532
0.35100001 -0.13994674 -0.054176286
0.31900001 -0.12080976 -0.059742589
0.32517076 -0.12378732 -0.056169886
0.33128572 -0.12785743 -0.054778423
0.31497678 -0.11430039 -0.055622421
0.32061115 -0.11869691 -0.054681033
0.29900002 -0.10092699 -0.053359434
0.30415791 -0.10515866 -0.055248074
0.30999997 -0.10974454 -0.056963228
0.28730556 -0.091612972 -0.053956911
0.29416871 -0.096864007 -0.055107009
0.27552938 -0.082756951 -0.055066004
0.28218421 -0.087795712 -0.055322219
0.26487216 -0.073789395 -0.054735113
0.27099997 -0.078892365 -0.056139134
0.24257144 -0.060196612 -0.052275568
0.25702173 -0.066560462 -0.054659076
0.2604 -0.06931743 -0.057548817
0.23698859 -0.052203733 -0.05434797
0.24141894 -0.057125092 -0.055278566
0.22764398 -0.042196069 -0.054714728
0.23195411 -0.047406748 -0.054153487
0.22780375 -0.037719306 -0.054914851
0.23174079 -0.032864258 -0.055233121
0.23679475 -0.026030803 -0.054669466
0.24055876 -0.021150246 -0.055881463
0.24513529 -0.015271718 -0.054846216
0.25 -0.010517791 -0.057274945
0.24900001 -0.00966221 -0.050147291
0.25389838 -0.0050775888 -0.055081647
0.25857139 0.0010024472 -0.053467337
0.26244444 0.005683125 -0.055296838
0.26763254 0.012244761 -0.054618094
0.27151567 0.017083373 -0.055219896
0.27507034 0.023689367 -0.054714851
0.28099999 0.029197196 -0.05846633
0.28350002 0.03067977 -0.059429497
0.30833337 0.039290071 -0.059678528
0.31 0.039745256 -0.058786277
0.3142381 0.043008242 -0.059302978
0.32484615 0.047000214 -0.059097372
0.33376476 0.048610669 -0.057373591
0.32710001 0.056420021 -0.059358265
0.33508775 0.054517481 -0.058058787
0.34365517 0.055880841 -0.056296922
0.3527143 0.056601856 -0.055506479
0.36491668 0.05772933 -0.054529682
0.37100002 0.058911338 -0.052898142
0.3258298 0.065109752 -0.0592563
0.33407691 0.066890053 -0.058451101
0.34532145 0.065932386 -0.058050148
0.35424441 0.065649778 -0.056724373
0.36478728 0.065094523 -0.05498207
0.37439659 0.064823695 -0.052296363
0.38016668 0.06707494 -0.05062966
0.32584319 0.074821182 -0.059095841
0.33382758 0.074722134 -0.05788447
0.34447062 0.074855924 -0.057263166
0.35435012 0.075045206 -0.055865653
0.36488098 0.074958123 -0.054105144
0.37447926 0.074784264 -0.052268416
0.38063639 0.074764542 -0.050692204
0.32560006 0.084671542 -0.059441924
0.33403847 0.085636169 -0.058046993
0.34460974 0.085125595 -0.056801971
0.35417026 0.084579334 -0.055437576
0.36438903 0.085120544 -0.053641908
0.37400001 0.084777474 -0.051989943
0.38278946 0.085293792 -0.050598253
0.31900001 0.09792874 -0.059742589
0.32426089 0.095150411 -0.059229735
0.33490628 0.094414063 -0.058405966
0.34472221 0.095010087 -0.057075117
0.35457775 0.095614567 -0.055592284
0.3646251 0.09461432 -0.053554747
0.37378949 0.094197921 -0.051905748
0.38355559 0.094992213 -0.051476952
0.39535719 0.09553571 -0.050591554
0.40000001 0.098330557 -0.050448228
0.31900001 0.10205588 -0.059742589
0.32311109 0.10537694 -0.059176221
0.33350003 0.10757309 -0.059023775
0.34570372 0.10444286 -0.058565017
0.35367936 0.10512851 -0.056018073
0.36483344 0.10518939 -0.053422399
0.3742592 0.10556645 -0.051957991
0.38436845 0.10604633 -0.051328149
0.39471427 0.10524672 -0.050928071
0.40000001 0.1067989 -0.050448228
0.32604551 0.11414123 -0.059420574
0.33323076 0.11491496 -0.058877464
0.34561908 0.11445226 -0.05860373
0.35332793 0.11479447 -0.056177188
0.36466667 0.1135477 -0.053880855
0.37502635 0.11494014 -0.052468561
0.38364005 0.11552656 -0.05087186
0.39250007 0.11381405 -0.050225321
0.31550005 0.12852615 -0.059675418
0.32491183 0.12537943 -0.059451222
0.33335719 0.1257962 -0.058673743
0.3442308 0.12481606 -0.058636889
0.35588515 0.12557431 -0.056168798
0.36327779 0.12333255 -0.053645968
0.37542301 0.12312471 -0.053082887
0.3840645 0.12542401 -0.05149319
0.39020005 0.1248364 -0.050130121
0.31171426 0.13340618 -0.059739094
0.3265 0.13018087 -0.059225351
0.33488241 0.13278224 -0.058865611
0.34507149 0.13598639 -0.058617782
0.35530573 0.13475579 -0.056303792
0.36235714 0.13570526 -0.053855505
0.37 0.13926062 -0.053627472
0.38676926 0.13481849 -0.053254392
0.39171052 0.1359639 -0.051848479
0.21900001 0.14656435 -0.05028734
0.22400001 0.14810774 -0.050269175
0.32571429 0.14563969 -0.0599005
0.33150002 0.14894301 -0.05974422
0.34605092 0.14561424 -0.05851198
0.35432073 0.14432898 -0.056505848
0.36384791 0.14495282 -0.054438405
0.37471426 0.14625023 -0.053089783
0.38511902 0.14552268 -0.052274715
0.39096555 0.14342174 -0.051178552
0.33652502 0.15474413 -0.059279971
0.34493542 0.15429018 -0.057798896
0.35299996 0.15494704 -0.056080427
0.36515003 0.15503994 -0.054935634
0.37372732 0.15560198 -0.052962363
0.38322738 0.1544916 -0.051237155
0.39025003 0.15238997 -0.050136544
0.29741025 0.16791391 -0.056690838
0.30323815 0.16726398 -0.058180127
0.31149998 0.16889985 -0.059191871
0.32630005 0.16647768 -0.059648015
0.33439127 0.16519177 -0.058536358
0.34498358 0.16475968 -0.057136979
0.354 0.16604941 -0.055443022
0.36557156 0.16509621 -0.054487005
0.37282979 0.16456392 -0.052145701
0.38315386 0.16358343 -0.051023688
0.39300004 0.16816352 -0.050303072
0.29716668 0.17056596 -0.058799461
0.31580001 0.17137441 -0.058401138
0.32498005 0.17260522 -0.058011137
0.33461291 0.17342626 -0.056143839
0.3441579 0.1741114 -0.05501296
0.35447496 0.17480642 -0.054810978
0.36463642 0.17547558 -0.053565487
0.37293336 0.17551808 -0.051804807
0.38321429 0.17610416 -0.051096357
0.39486364 0.17533487 -0.05081011
0.40000001 0.17689797 -0.050448228
0.35688889 0.18138212 -0.052938346
0.36440006 0.18197148 -0.05178092
0.37361541 0.18120527 -0.050564386
0.38350001 0.1804257 -0.050171468
0.39516667 0.18281029 -0.050611775
0.40000001 0.18395492 -0.050448228
0.34833333 -0.34072414 -0.046937481
0.35060003 -0.3422567 -0.048836879
0.36900002 -0.34068868 -0.049142506
0.37573686 -0.34203973 -0.048385531
0.34512085 -0.33399734 -0.04421778
0.35178947 -0.3342104 -0.048635565
0.36650002 -0.3336305 -0.043873485
0.37539333 -0.33527964 -0.045229044
0.38453951 -0.33560601 -0.046200898
0.39433026 -0.33558017 -0.045834664
0.40000004 -0.33355498 -0.044708572
0.34572729 -0.3266874 -0.042243343
0.35306665 -0.32634839 -0.041641578
0.36250001 -0.32923591 -0.04081089
0.37583336 -0.32886568 -0.040327679
0.38603997 -0.32506692 -0.047195368
0.39411545 -0.32584667 -0.04771075
0.40000001 -0.32273433 -0.047625449
0.38352004 -0.31543458 -0.04944703
0.3941482 -0.31447679 -0.047608875
0.40000001 -0.31567737 -0.046684518
0.37500003 -0.3043277 -0.049941573
0.38464278 -0.30495858 -0.049085181
0.39408582 -0.30443388 -0.047101658
0.40000001 -0.30250439 -0.045743592
0.38678265 -0.29539338 -0.04909594
0.39397374 -0.29544392 -0.047218502
0.40000001 -0.2996816 -0.045743592
0.38408116 -0.28479308 -0.048824705
0.39417246 -0.2852298 -0.047279488
0.40000001 -0.28431311 -0.047311809
0.38378045 -0.2751137 -0.04923385
0.39480001 -0.27547023 -0.048255872
0.40000001 -0.27380612 -0.047625449
0.38738102 -0.26497158 -0.049332544
0.39414823 -0.26438347 -0.047850903
0.38566664 -0.25469646 -0.048938755
0.39385 -0.25458005 -0.048047602
0.40000004 -0.25518921 -0.047625449
0.37857145 -0.24444535 -0.049526684
0.38353577 -0.24470815 -0.049076609
0.39305264 -0.24468718 -0.048158273
0.40000004 -0.2453901 -0.047625449
0.38441169 -0.23516227 -0.049409121
0.3942 -0.2344908 -0.048439551
0.40000001 -0.23758042 -0.047625449
0.38900003 -0.22006635 -0.049975954
0.39541021 -0.2255244 -0.048576448
0.40000001 -0.22346652 -0.047625449
0.38600004 -0.21340828 -0.049406268
0.39460614 -0.21458779 -0.047819223
0.40000001 -0.21311632 -0.046214055
0.38485709 -0.20498255 -0.049412932
0.39558181 -0.20494622 -0.047277626
0.40000004 -0.20342477 -0.044802666
0.38582352 -0.19593646 -0.049725462
0.39522231 -0.19543914 -0.048392132
0.40000001 -0.1990024 -0.046370875
0.38840002 -0.18774809 -0.04989887
0.39493176 -0.18485937 -0.048408926
0.40000001 -0.18018387 -0.047625449
0.38900003 -0.17111108 -0.049975954
0.39513168 -0.17487544 -0.048506886
0.40000001 -0.17877248 -0.047625449
0.38860002 -0.16545118 -0.049924567
0.39476469 -0.1657151 -0.04863539
0.40000001 -0.16536427 -0.047860682
0.37500003 -0.15039788 -0.049941573
0.38277781 -0.15562779 -0.049773797
0.39500001 -0.15841909 -0.04888846
0.40000001 -0.159013 -0.048566375
0.37500003 -0.1490747 -0.049941573
0.33214286 -0.13030711 -0.045689709
0.32536229 -0.12383343 -0.044839401
0.33051997 -0.12873401 -0.044765308
0.30854547 -0.11041689 -0.044527199
0.31449354 -0.11504493 -0.044966251
0.32014289 -0.11935989 -0.047155313
0.29761764 -0.10155275 -0.04412815
0.30354062 -0.10624138 -0.045326162
0.28694332 -0.092429154 -0.044645116
0.29298469 -0.097290576 -0.045085296
0.27488348 -0.083155371 -0.045052409
0.2818611 -0.088569187 -0.046026431
0.25878945 -0.070629373 -0.042828787
0.26404947 -0.074422881 -0.045793764
0.27041665 -0.079192705 -0.046347935
0.24692596 -0.061731655 -0.043184999
0.25536957 -0.067105405 -0.045760442
0.23610286 -0.053485639 -0.04620219
0.24091431 -0.058152519 -0.047300972
0.22676939 -0.043319069 -0.044745419
0.23094112 -0.048269246 -0.046855163
0.22725409 -0.036336713 -0.044653121
0.23061387 -0.031435326 -0.045711253
0.23574442 -0.025395794 -0.044925425
0.24010706 -0.020350927 -0.046199154
0.24401312 -0.014971565 -0.04500917
0.24825673 -0.0083927438 -0.043909654
0.25286818 -0.00378818 -0.045451593
0.25776091 0.0019827131 -0.044106763
0.2616792 0.0066170287 -0.045659717
0.26664132 0.013088584 -0.044501401
0.27109757 0.017829787 -0.045945693
0.27450761 0.024323335 -0.044955321
0.38454995 0.065995701 -0.048582345
0.39125001 0.069030896 -0.047043521
0.38412505 0.075156465 -0.049074028
0.39281818 0.07412868 -0.047859058
0.38599995 0.083325259 -0.048746403
0.39159998 0.086405873 -0.048282761
0.39657143 0.092024975 -0.049214344
0.40000001 0.093625918 -0.049036838
0.39609998 0.11628683 -0.0498625
0.40000004 0.11620818 -0.049507298
0.39613053 0.12504606 -0.049431022
0.40000001 0.12891069 -0.048566375
0.39632434 0.13537145 -0.048898015
0.40000001 0.13502672 -0.047625449
0.19900002 0.14236617 -0.045226783
0.20290002 0.14324403 -0.047002897
0.21576002 0.14650892 -0.046118904
0.22345379 0.14825135 -0.0446283
0.39557156 0.14450492 -0.048768505
0.40000001 0.14631784 -0.047625449
0.38809091 0.15714642 -0.049609601
0.3952187 0.15493496 -0.048706777
0.40000001 0.15666804 -0.047625449
0.27317649 0.16142407 -0.041031361
0.29733333 0.16879605 -0.04286157
0.30552828 0.16895387 -0.042261604
0.39575002 0.16582705 -0.049561132
0.29900002 0.17091511 -0.041578438
0.30066669 0.17080574 -0.040807333
0.36833334 0.18354337 -0.049342275
0.37484208 0.18379313 -0.048849002
0.38478953 0.18476617 -0.048811652
0.39431256 0.18713146 -0.048568871
0.40000001 0.18818909 -0.048566375
0.39580005 0.19123603 -0.046563648
0.40000001 0.19336419 -0.045743592
0.34837499 -0.34121066 -0.030516986
0.35000002 -0.34043598 -0.030145911
0.3444179 -0.33385614 -0.035136357
0.35336244 -0.33394891 -0.031514738
0.36000001 -0.33068553 -0.030160388
0.39800003 -0.3300148 -0.039897542
0.34588617 -0.32758874 -0.037789669
0.35465083 -0.32676402 -0.035311833
0.36431015 -0.32629192 -0.034394134
0.37456071 -0.32432947 -0.034591187
0.3827073 -0.3236059 -0.035957646
0.39407149 -0.32403377 -0.035926688
0.40000001 -0.32602757 -0.035863858
0.37855557 -0.31953081 -0.033891633
0.38409618 -0.31892061 -0.032627109
0.39205885 -0.31808576 -0.031924959
0.33000001 -0.13002133 -0.035021536
0.31900001 -0.12043457 -0.032128256
0.32489872 -0.12505339 -0.034616437
0.3301667 -0.12918097 -0.038017068
0.30767861 -0.11135343 -0.034464739
0.31409231 -0.11630582 -0.035316899
0.29719049 -0.10223268 -0.035053346
0.30258214 -0.10689051 -0.034965768
0.28526923 -0.092978932 -0.034831468
0.29202634 -0.098105595 -0.035439622
0.26900002 -0.080314562 -0.03266089
0.27443001 -0.084324643 -0.034718655
0.28061908 -0.089127593 -0.035269734
0.25774997 -0.071143784 -0.034813654
0.26393908 -0.07604064 -0.034835674
0.27000001 -0.079705812 -0.039451122
0.23819999 -0.060232438 -0.032284152
0.24451722 -0.061615545 -0.037309963
0.25390524 -0.067422308 -0.034550231
0.23491712 -0.054461915 -0.03388638
0.24152631 -0.058980484 -0.037672903
0.22528517 -0.044186316 -0.034876801
0.22999999 -0.049388517 -0.034702811
0.22556418 -0.03506406 -0.034829792
0.23 -0.030148184 -0.035991974
0.23316161 -0.025170693 -0.034811538
0.24000001 -0.020039542 -0.038172726
0.23857139 -0.019278241 -0.032174602
0.2425292 -0.014542277 -0.035187848
0.24734785 -0.0074668983 -0.034834526
0.25163016 -0.0025898451 -0.035046317
0.25635871 0.0034531795 -0.034826554
0.26095948 0.0083748838 -0.035445109
0.2657015 0.013800787 -0.035017382
0.27047923 0.018719805 -0.034749292
0.27378708 0.023975555 -0.035115555
0.21900001 0.1483674 -0.039726611
0.22175002 0.1485265 -0.039570045
0.27235717 0.16163203 -0.038835201
0.30484214 0.16862641 -0.038107511
0.30265 0.17125463 -0.038202383
0.3455556 0.17914498 -0.037168201
0.35300002 0.17977796 -0.037877616
0.34433332 0.18049376 -0.036407419
0.35666668 0.18164141 -0.037432063
0.36534783 0.18527493 -0.033238221
0.37325004 0.18558896 -0.031157546
0.38833335 -0.38046145 -0.024921237
0.39111105 -0.3828271 -0.022440821
0.38606063 -0.37462577 -0.023447175
0.39000002 -0.37911361 -0.021435555
0.37525001 -0.36269662 -0.02517595
0.38287503 -0.36531851 -0.022025153
0.35900003 -0.35045677 -0.027543165
0.36593333 -0.35368437 -0.026234331
0.37474188 -0.35478297 -0.023736985
0.38219354 -0.35524192 -0.021054903
0.3554146 -0.34315884 -0.028444244
0.36434007 -0.34444061 -0.025939412
0.37480956 -0.34456304 -0.023208274
0.3817201 -0.34542266 -0.021023342
0.35708827 -0.33662221 -0.029272189
0.3645854 -0.3347716 -0.027620606
0.37443161 -0.33455712 -0.024599791
0.38409671 -0.33347344 -0.02219709
0.39117393 -0.33199355 -0.021968829
0.36707145 -0.3284162 -0.029456025
0.37538236 -0.32736844 -0.027834799
0.3847 -0.32516554 -0.027225086
0.39270785 -0.32475582 -0.022689832
0.38777781 -0.31905246 -0.028634876
0.39495736 -0.31565127 -0.024926124
0.40000007 -0.3124927 -0.022365173
0.39899999 -0.30858633 -0.027394067
0.40000004 -0.30828434 -0.026118541
0.31789657 -0.12169517 -0.023876252
0.32231373 -0.12525792 -0.02611902
0.30664289 -0.11228683 -0.024212429
0.31297958 -0.11718846 -0.02496383
0.29642314 -0.10308526 -0.02480612
0.30144194 -0.10788804 -0.025041431
0.28498766 -0.093708023 -0.025348457
0.29157579 -0.09860941 -0.024509002
0.26847625 -0.080699861 -0.024208475
0.27483183 -0.085467786 -0.025067994
0.28 -0.089903004 -0.024775375
0.25732756 -0.071333714 -0.024905713
0.26318255 -0.076282702 -0.025058633
0.25277531 -0.06718415 -0.025690373
0.2344768 -0.054548334 -0.028424596
0.22370818 -0.042849436 -0.02731174
0.23046665 -0.049242012 -0.028125819
0.22546571 -0.035101261 -0.025773406
0.23136951 -0.031823836 -0.021437507
0.22900003 -0.02968519 -0.027056085
0.2332038 -0.024923945 -0.024861762
0.23843695 -0.018804805 -0.025014866
0.24194755 -0.013736105 -0.024946515
0.24708444 -0.0071405489 -0.025226355
0.25096002 -0.0022772967 -0.024976317
0.25587502 0.0039248997 -0.024776505
0.26047924 0.0087730372 -0.026127191
0.26540259 0.014690729 -0.024799986
0.27000001 0.019162111 -0.028865693
0.26900002 0.020778537 -0.020743655
0.27182925 0.023879645 -0.02517016
0.21669231 0.14715022 -0.027522974
0.22380492 0.14842269 -0.025129428
0.23 0.14905673 -0.022182386
0.22900002 0.15038383 -0.023853926
0.23 0.15067983 -0.021433266
0.29225713 0.16543809 -0.025586521
0.36600003 0.18668486 -0.029515127
0.3741667 0.18790834 -0.028998071
0.38200003 0.18915576 -0.029307768
0.39800003 -0.39086923 -0.015555757
0.39428207 -0.38416898 -0.017304603
0.40000004 -0.38483551 -0.014692998
0.38814285 -0.37290707 -0.018887153
0.39316219 -0.37527838 -0.016684797
0.40000007 -0.37495574 -0.014692998
0.38665515 -0.36470249 -0.018654367
0.39415014 -0.36439329 -0.016350204
0.40000001 -0.36836931 -0.014692998
0.38665628 -0.35533172 -0.019032676
0.39492503 -0.35513043 -0.01682179
0.40000001 -0.35331446 -0.014692998
0.38678953 -0.34466106 -0.019234272
0.39470005 -0.34538972 -0.017045286
0.40000004 -0.34578705 -0.015633926
0.38753846 -0.33788428 -0.019423563
0.39429998 -0.3342976 -0.017708281
0.40000001 -0.3307322 -0.015633926
0.39664108 -0.326197 -0.018371623
0.40000004 -0.32508662 -0.017515779
0.40000001 -0.31944108 -0.019397633
0.31693223 -0.12251399 -0.015391263
0.32000002 -0.12570493 -0.013071697
0.30723631 -0.11276446 -0.016064957
0.31182006 -0.11731619 -0.014529724
0.29553849 -0.10278707 -0.017043866
0.30206671 -0.10809917 -0.016421232
0.28525004 -0.093023904 -0.018067256
0.29161289 -0.09801545 -0.017417064
0.26800001 -0.080376238 -0.019615836
0.27620831 -0.08631327 -0.018804215
0.28 -0.089903012 -0.019176859
0.29427499 -0.084354855 -0.01089455
0.259 -0.072803035 -0.019870972
0.26427275 -0.077343598 -0.019369008
0.29499999 -0.074422903 -0.010914588
0.29297903 -0.065163158 -0.011019874
0.26439229 -0.054250997 -0.013945607
0.28400001 -0.059120547 -0.012436205
0.29512498 -0.056603804 -0.010723162
0.29999998 -0.052924395 -0.010314054
0.264 -0.04998903 -0.014354968
0.29725003 -0.04546728 -0.01057118
0.30140001 -0.04856154 -0.010362187
0.23454548 -0.032141414 -0.019270159
0.26187307 -0.034253474 -0.015162885
0.27800003 -0.030405859 -0.014135301
0.28465158 -0.033891946 -0.011941092
0.29333332 -0.033927139 -0.010084853
0.2349584 -0.026707284 -0.019430984
0.27732819 -0.02440729 -0.013436901
0.28177273 -0.02580902 -0.011792829
0.29452941 -0.023910889 -0.010493075
0.23833334 -0.019245259 -0.019593274
0.24602437 -0.013614303 -0.018528065
0.25071752 -0.01370345 -0.015888158
0.27715915 -0.014130524 -0.013570382
0.28256857 -0.015929816 -0.0115194
0.29100001 -0.010607455 -0.010004632
0.24737212 -0.0078213448 -0.018256696
0.25165388 -0.0032782208 -0.017617825
0.26300001 -0.0083553679 -0.014916901
0.27552381 -0.0067957789 -0.013944651
0.28488246 -0.0040959502 -0.011904472
0.29100001 -0.009922931 -0.010004632
0.25588003 0.0042910501 -0.018252201
0.26016667 0.0094883097 -0.018429516
0.27777421 0.0075969356 -0.014247203
0.28335071 0.0041611348 -0.01224143
0.29366669 0.0072564627 -0.010269012
0.26632741 0.015493928 -0.017743083
0.27432266 0.015194719 -0.012926944
0.28406668 0.012708184 -0.010833588
0.29100001 0.010612804 -0.010004632
0.26882356 0.021149669 -0.017871886
0.27430475 0.02493952 -0.014233127
0.27762905 0.032605462 -0.012495348
0.23 0.14959776 -0.01981017
0.22833335 0.1508386 -0.019488627
0.23693614 0.15363941 -0.012807901
0.24478948 0.15453586 -0.010718453
0.2554706 0.15678634 -0.010937571
0.26100004 0.15778765 -0.011427871
0.29666665 0.16771944 -0.01089672
