# .PCD v0.7 - Point Cloud Data file format
VERSION 0.7
FIELDS x y z
SIZE 4 4 4
TYPE F F F
COUNT 1 1 1
WIDTH 1426
HEIGHT 1
VIEWPOINT 0 0 0 1 0 0 0
POINTS 1426
DATA ascii
0.26900002 -0.016344178 0.040593199
0.27000019 -0.014314313 0.042016994
0.26900002 -0.0056292121 0.041236516
0.27000001 -0.0073014656 0.042638887
0.26900002 0.0049357614 0.040389303
0.27041304 0.0057685012 0.042034414
0.26900002 0.012748339 0.040288858
0.27045909 0.015444949 0.041849542
0.26900002 0.027528118 0.040108066
0.27043849 0.024535101 0.041717917
0.26900002 0.034172241 0.040108062
0.27000025 0.035069123 0.041796867
0.27000001 0.040841069 0.041082829
0.35858342 0.085512705 0.041410632
0.36351418 0.086178429 0.046286467
0.35858074 0.095386393 0.041547678
0.36354226 0.094887532 0.046295699
0.35843244 0.10497206 0.041639529
0.36375305 0.10496581 0.046494238
0.35739133 0.1149584 0.041885968
0.36462656 0.11507196 0.047001828
0.35803235 0.12398724 0.041674893
0.36424991 0.12541671 0.046421356
0.37 0.1292515 0.049945079
0.35844448 0.13601726 0.041390747
0.36461115 0.13484235 0.046278995
0.37 0.13012186 0.049945079
0.35833335 0.14400317 0.041381694
0.36397305 0.1453253 0.045708496
0.37 0.14317723 0.049509902
0.35864711 0.15644789 0.040769901
0.36403617 0.1549014 0.045437764
0.37 0.15057527 0.049945079
0.358275 0.16447127 0.041916661
0.36400011 0.16498353 0.046554785
0.37 0.16624169 0.049945083
0.35842317 0.17530693 0.041281328
0.36370334 0.17498127 0.046156649
0.35780561 0.18488869 0.041567635
0.36404839 0.18492018 0.046564411
0.35778943 0.19462006 0.041122001
0.36447132 0.19527803 0.046256542
0.35836664 0.20552315 0.041406855
0.36410311 0.20494196 0.046284124
0.35744286 0.21524206 0.042243432
0.3634167 0.21468455 0.047106087
0.35543627 0.22638661 0.043899436
0.3624616 0.22461213 0.047897942
0.289 0.23714648 0.041730434
0.29340312 0.23452497 0.044776641
0.30652326 0.23490448 0.045472503
0.31462663 0.23380192 0.044846423
0.32399306 0.23184675 0.045324199
0.33466992 0.23191607 0.044964239
0.34462503 0.23157154 0.045274395
0.35173914 0.23066419 0.045487236
0.37598184 -0.24482746 0.052898675
0.38208872 -0.24505475 0.058232211
0.37478259 -0.23487312 0.052797165
0.38186044 -0.2350141 0.058276497
0.37526014 -0.22475062 0.053083919
0.38163155 -0.22534478 0.058463328
0.37522385 -0.21498118 0.053298801
0.38160619 -0.21498433 0.058695443
0.37515491 -0.20497431 0.053616773
0.38127998 -0.20507731 0.058931179
0.37460971 -0.19519511 0.053211734
0.3817144 -0.19485377 0.058455616
0.37522867 -0.18521845 0.052842777
0.38219991 -0.18505737 0.05788812
0.37475383 -0.17504619 0.052806698
0.38177422 -0.17498592 0.057794802
0.37509862 -0.16463177 0.053552207
0.38219357 -0.16534652 0.058669779
0.37526757 -0.15518266 0.053490464
0.3813715 -0.15502755 0.0586849
0.37500003 -0.14640671 0.053152896
0.38165519 -0.14625347 0.057960238
0.36900002 0.088105932 0.050678097
0.37471434 0.085784391 0.053912796
0.38182142 0.085551299 0.058568031
0.36900002 0.090709947 0.050678097
0.3746112 0.094860889 0.054019805
0.3811667 0.095344596 0.058925766
0.36900005 0.10720205 0.050678093
0.37440673 0.10506231 0.053461209
0.38200003 0.10499578 0.058191661
0.37419349 0.11511192 0.054530807
0.38092858 0.11271103 0.059101284
0.37455842 0.12467285 0.054246601
0.38075006 0.12578943 0.05906548
0.37450016 0.13503532 0.053695664
0.38212121 0.13498156 0.058774967
0.37510973 0.14515103 0.053864926
0.38100004 0.14473985 0.059048817
0.36900005 0.15667836 0.050678093
0.37491214 0.15492189 0.054409724
0.38038895 0.15420492 0.059102647
0.37539768 0.16477394 0.054740388
0.38030005 0.16693465 0.059207946
0.36899999 0.17664245 0.0506781
0.37544096 0.17514807 0.054861378
0.38038465 0.17307486 0.059056137
0.36899999 0.18523571 0.050678097
0.37456673 0.18488407 0.055108886
0.38000003 0.1881654 0.059339873
0.36899999 0.19487058 0.050678097
0.37380254 0.19504999 0.05482481
0.38066667 0.19476731 0.059443984
0.36899999 0.20640264 0.0506781
0.3742317 0.20530191 0.054814309
0.38070005 0.2041789 0.059449185
0.36850002 0.21565391 0.050671425
0.37457007 0.21514054 0.055598345
0.32800004 0.22954063 0.056620605
0.33185717 0.22972921 0.056840248
0.34745646 0.22933148 0.05608622
0.35401195 0.22868742 0.055815108
0.36538029 0.22792579 0.054026235
0.37221226 0.22397852 0.05660833
0.28895456 0.23475057 0.057264674
0.29425818 0.23347691 0.054945435
0.30467939 0.23356979 0.055411767
0.31486309 0.23322076 0.054807227
0.32359996 0.23105289 0.054608449
0.335619 0.23086333 0.054006975
0.34335163 0.23091023 0.054362118
0.35592857 0.23017077 0.051274516
0.38685298 -0.24510403 0.062205657
0.39296076 -0.24508317 0.066881023
0.38682351 -0.23491871 0.062361646
0.3932499 -0.23504761 0.067049101
0.38658836 -0.22487508 0.062216844
0.39370912 -0.22501348 0.066977106
0.38700008 -0.21498598 0.062256735
0.39435092 -0.21488273 0.067202717
0.38637489 -0.20482917 0.062128577
0.39496306 -0.2048998 0.067225277
0.40000001 -0.20464797 0.069990441
0.38700002 -0.19507438 0.061565004
0.39495823 -0.19485605 0.066604502
0.38759091 -0.18507795 0.060982469
0.39425707 -0.18501306 0.06610778
0.38706672 -0.17432632 0.061417248
0.39349163 -0.17522907 0.066553786
0.38691667 -0.16460644 0.06242054
0.39293477 -0.16518417 0.067111909
0.38655257 -0.15526733 0.062425226
0.39329621 -0.15474917 0.067109846
0.38719055 -0.14673981 0.061505351
0.39372969 -0.14486168 0.066235989
0.39594647 -0.13509813 0.067304097
0.39383605 -0.12483187 0.066622205
0.39295238 -0.1150052 0.066428266
0.3921693 -0.10492691 0.066339687
0.38900003 -0.090586543 0.06349045
0.39211291 -0.09511891 0.066383727
0.38855556 -0.084288344 0.063824601
0.39184782 -0.085137129 0.06702511
0.38885713 -0.075241491 0.063902855
0.39168611 -0.074780181 0.067492254
0.38899997 -0.065422624 0.063947961
0.3913818 -0.064903177 0.067565806
0.38899997 -0.05675653 0.063974887
0.39138594 -0.05458222 0.067098729
0.39358199 -0.044975616 0.066522837
0.39360932 -0.034863781 0.066619404
0.38862503 -0.022051321 0.063772388
0.39231491 -0.025494978 0.066566341
0.38875002 -0.018170731 0.063792787
0.39201733 -0.014783938 0.066563822
0.389 -0.0026500751 0.063764967
0.39137501 -0.0054879528 0.066545591
0.38900003 0.00076611742 0.06379547
0.3914001 0.0052657863 0.066379838
0.38900003 0.018762134 0.063947976
0.3912254 0.014876025 0.066814132
0.38877776 0.025659474 0.064165697
0.39126539 0.024938649 0.06769561
0.38840541 0.034931894 0.064505592
0.39117944 0.035286311 0.068119742
0.38877776 0.044596937 0.064199418
0.39143479 0.045142893 0.067875117
0.38900003 0.051246468 0.06349045
0.39150792 0.05497776 0.066315733
0.39295161 0.064891748 0.066360801
0.39431345 0.075204387 0.066688411
0.38700011 0.08551611 0.062479477
0.39196002 0.084623717 0.066965424
0.38650003 0.095181905 0.062879227
0.39187238 0.095056958 0.067650788
0.38674548 0.10489548 0.06263043
0.39176759 0.10506961 0.067589551
0.3847619 0.1146577 0.062135924
0.39262167 0.11476719 0.067305885
0.38548002 0.12492163 0.062868178
0.39358544 0.12498729 0.067901045
0.38730299 0.13515581 0.062360279
0.39213553 0.1351697 0.06718085
0.38594115 0.14556417 0.062693849
0.39208928 0.14470525 0.067638531
0.38500002 0.15485071 0.062979914
0.39173692 0.1552496 0.06825643
0.38457409 0.16497542 0.062809832
0.39254287 0.16474567 0.067949824
0.38458335 0.17511997 0.063257284
0.39208829 0.17415513 0.068500087
0.38433337 0.18454558 0.063006975
0.39224002 0.18510939 0.068044551
0.38556758 0.19442511 0.062518686
0.3929269 0.19532718 0.067382812
0.38531998 0.20583226 0.062351927
0.39233336 0.20508301 0.067180067
0.37899998 0.21694207 0.060372423
0.38433325 0.21487486 0.064133741
0.39133334 0.21371764 0.068781935
0.32803851 0.22953789 0.063453764
0.33349472 0.22904751 0.065085493
0.34484619 0.22966865 0.064170405
0.35501474 0.22873323 0.063349359
0.36450008 0.22888649 0.065193258
0.37524557 0.22738017 0.064426705
0.38371944 0.22401465 0.066630505
0.289 0.23545291 0.064915873
0.2938011 0.23375116 0.064339645
0.30382466 0.23154658 0.064728484
0.31484339 0.23159628 0.064878538
0.32386068 0.23084997 0.065459237
0.33507138 0.23017965 0.064545743
0.34491554 0.23064934 0.064711951
0.35362503 0.23065686 0.067763016
0.37380004 0.23011494 0.067867532
0.39800003 -0.24481854 0.07057672
0.40446559 -0.24469481 0.074835368
0.41078573 -0.2457107 0.079401389
0.39863637 -0.23489228 0.070689566
0.40440685 -0.23507819 0.075013191
0.4104 -0.23458862 0.079533316
0.39844453 -0.22410637 0.07107266
0.40454248 -0.22495949 0.075666822
0.41000003 -0.22760652 0.079455808
0.39866671 -0.21552943 0.070773154
0.40460277 -0.21515399 0.075449817
0.41000003 -0.21217531 0.079455808
0.39900002 -0.2097678 0.070754044
0.40433332 -0.20507753 0.074579097
0.4106364 -0.20525852 0.079579122
0.40448111 -0.19473925 0.07478825
0.41000003 -0.19722632 0.079455808
0.39885715 -0.18342236 0.070728712
0.40430987 -0.18488905 0.075340129
0.39820001 -0.17437702 0.070925042
0.40433866 -0.17519222 0.075824849
0.39731818 -0.1649576 0.070923924
0.40453967 -0.16521242 0.075947672
0.41000003 -0.16105944 0.079455808
0.39800012 -0.15566804 0.070941456
0.40456671 -0.15471391 0.075510994
0.41000006 -0.15623719 0.0794558
0.39838898 -0.14447106 0.071062826
0.40448344 -0.1451088 0.075892799
0.39850011 -0.13481407 0.071469709
0.40334556 -0.13500446 0.076121494
0.39803135 -0.12513778 0.071549356
0.40400019 -0.12495956 0.076400101
0.39709094 -0.11488805 0.070883617
0.40409374 -0.11517055 0.075931303
0.39730009 -0.10498016 0.071389675
0.4043656 -0.10500899 0.076470099
0.39731047 -0.095531337 0.071197845
0.40377966 -0.094710179 0.076038174
0.39763632 -0.084691226 0.071108967
0.40364423 -0.085168228 0.075947471
0.39690331 -0.074913964 0.072041214
0.40370455 -0.075231723 0.076709941
0.39675006 -0.065003172 0.072253369
0.40345234 -0.065000825 0.076768838
0.39700007 -0.054833453 0.071646824
0.40459254 -0.05499896 0.076548509
0.39786211 -0.045514427 0.071360491
0.40356368 -0.044726469 0.076110885
0.3975758 -0.03506862 0.071438566
0.40307841 -0.034976989 0.076262794
0.39783347 -0.025145562 0.071133375
0.40387306 -0.024955202 0.075939134
0.39709997 -0.014945449 0.070885345
0.40506354 -0.014991577 0.076196715
0.39646161 -0.0046202904 0.070987806
0.40476277 -0.0052148164 0.076159939
0.3966178 0.0054652765 0.071487062
0.40363461 0.0049856249 0.07645835
0.39625812 0.015079265 0.072104603
0.40371427 0.01477857 0.077237844
0.39675003 0.024882935 0.072253436
0.40352386 0.024932232 0.076736942
0.39700013 0.035023775 0.072270267
0.40395236 0.034911718 0.07690876
0.39692312 0.044569489 0.072039969
0.40357453 0.045196094 0.076499544
0.39684394 0.055077475 0.071308136
0.4034816 0.055049334 0.07630159
0.39740014 0.064998314 0.071805432
0.40375507 0.065273084 0.076973274
0.39803237 0.07507322 0.071489975
0.40304711 0.074902564 0.076695003
0.39736372 0.084904268 0.071401007
0.40365079 0.085070543 0.076772355
0.39724329 0.094596975 0.072112486
0.40307394 0.094816267 0.077172212
0.39692861 0.10507555 0.07162302
0.40308324 0.10518565 0.076764807
0.39734623 0.11417994 0.071289882
0.40349093 0.11526954 0.076132454
0.39746672 0.12681021 0.070918895
0.40440002 0.12510571 0.075461499
0.41000003 0.12490009 0.079455808
0.39710003 0.13569589 0.072069928
0.40390196 0.13460444 0.07673467
0.39710265 0.14513716 0.072480671
0.40328836 0.14465162 0.077359043
0.39667445 0.15479806 0.072646305
0.40356091 0.15511972 0.077703997
0.3967827 0.16536914 0.07237374
0.40379542 0.16490699 0.07769876
0.39717504 0.17438519 0.072606273
0.40331829 0.17505942 0.077563114
0.39707693 0.1846226 0.070916966
0.40438783 0.18540518 0.076028831
0.39775005 0.19543108 0.071352683
0.4041667 0.19482212 0.076340213
0.41000003 0.19096494 0.079455808
0.3971667 0.20509282 0.07185556
0.40264422 0.20473255 0.077041246
0.39608932 0.21570595 0.072789006
0.4018777 0.21494842 0.077614762
0.31799999 0.22948776 0.074379735
0.32181579 0.22981243 0.075834014
0.33590484 0.22931287 0.07512413
0.34404305 0.22837012 0.075547673
0.35466081 0.22767627 0.075542577
0.36438465 0.2271283 0.074824013
0.37465426 0.22671954 0.074765369
0.38410974 0.22546889 0.074519984
0.39438629 0.22384535 0.075227208
0.40060005 0.22164026 0.078953788
0.289 0.23199117 0.076231293
0.29479855 0.2326287 0.074647821
0.30446306 0.23160838 0.075093806
0.31405634 0.23103024 0.074909993
0.3257671 0.23068349 0.074489944
0.33137211 0.23064804 0.074639075
0.34800002 0.23043783 0.070851393
0.35369569 0.23051152 0.071252346
0.41560784 -0.24490966 0.083462566
0.42119363 -0.2448601 0.088594355
0.41573077 -0.23484366 0.083564445
0.42172012 -0.23539959 0.088355273
0.41489589 -0.22462384 0.083381653
0.42138094 -0.22460225 0.088412538
0.41516683 -0.21506833 0.083771713
0.42136371 -0.21481301 0.088957675
0.41515392 -0.20507187 0.083391502
0.42120001 -0.20535353 0.08846464
0.41453058 -0.19488227 0.083306663
0.42140001 -0.19478028 0.088109493
0.4141885 -0.18485588 0.083384424
0.42123812 -0.18484227 0.08866588
0.414381 -0.17507914 0.083642222
0.42109096 -0.1745082 0.088900328
0.41467297 -0.16504624 0.083277375
0.4215 -0.1650795 0.088520877
0.4146786 -0.15488105 0.083646826
0.42090479 -0.15513727 0.088877961
0.40900001 -0.1419057 0.080224112
0.41470686 -0.14527325 0.08401145
0.42075005 -0.14499035 0.088962995
0.40899995 -0.13517101 0.080224104
0.41484889 -0.13481571 0.084400885
0.42068753 -0.13594224 0.089011483
0.40899998 -0.12506899 0.080224104
0.41428345 -0.12487705 0.084714912
0.42000005 -0.12497478 0.08929754
0.40900001 -0.11554421 0.080224112
0.41386557 -0.11503723 0.08428508
0.42000002 -0.11460106 0.08929754
0.40899998 -0.10486492 0.080224104
0.41411304 -0.10503993 0.084631436
0.42030007 -0.1047972 0.089361325
0.40899998 -0.095243938 0.080224104
0.41471437 -0.095025852 0.084762409
0.42060003 -0.094974257 0.089425102
0.40899998 -0.085890204 0.080224104
0.41474533 -0.085041597 0.084252127
0.42105269 -0.084939688 0.089053236
0.40866664 -0.074500419 0.080158725
0.41407681 -0.07501401 0.08417058
0.42133331 -0.075762592 0.089141406
0.4084 -0.065226011 0.080362968
0.41379303 -0.064908363 0.084731959
0.42010006 -0.06521897 0.089318797
0.40899998 -0.054835826 0.080224104
0.41416138 -0.055036873 0.08465752
0.42070001 -0.055412393 0.089446366
0.40820003 -0.04512829 0.080067195
0.41382274 -0.044945832 0.084525734
0.42018184 -0.04496647 0.089336194
0.40809095 -0.035033703 0.080045789
0.4144001 -0.035747424 0.083850153
0.42174077 -0.034403 0.088162579
0.4084 -0.024971277 0.080106415
0.41459259 -0.024358058 0.084564313
0.42135715 -0.026406357 0.088807978
0.40900001 -0.019719251 0.080224112
0.4143613 -0.01480902 0.084648848
0.40900001 -0.0014393888 0.080224112
0.41445467 -0.0050031003 0.0848542
0.40861538 0.0053634201 0.080444686
0.41448477 0.0047022076 0.085390165
0.40876919 0.015423743 0.080918908
0.41435185 0.014840291 0.085127689
0.42055559 0.015340324 0.089415655
0.40809095 0.024569113 0.080133252
0.41425812 0.025148418 0.084787704
0.42050004 0.024729665 0.089403845
0.40800002 0.035034467 0.08002796
0.41430345 0.034878787 0.084512129
0.42053849 0.035428956 0.089184031
0.40816668 0.045370743 0.080220997
0.41388005 0.044902161 0.084131077
0.42142859 0.044871535 0.089083187
0.4083125 0.054569956 0.080389902
0.41446429 0.05510157 0.084928222
0.42090914 0.054954872 0.089490823
0.40856248 0.064274736 0.080799431
0.41461819 0.065177463 0.085325278
0.42025003 0.064258598 0.089350693
0.40805 0.074872561 0.081478678
0.41412294 0.075135246 0.086261898
0.40845454 0.085035346 0.08155898
0.41414526 0.085070461 0.08663296
0.40740004 0.094878368 0.081348479
0.41321567 0.094981216 0.08588139
0.40781254 0.10384967 0.081310831
0.41405991 0.10499825 0.085823357
0.42000002 0.10917493 0.08929754
0.40855554 0.1132476 0.080457635
0.41447175 0.11503454 0.084564112
0.42069232 0.11559776 0.089216739
0.41486362 0.12531175 0.08394295
0.42084214 0.12450337 0.089008577
0.40861538 0.1360857 0.080444694
0.41430867 0.13470614 0.084989689
0.42020005 0.13314575 0.089340061
0.40810004 0.14495982 0.081007555
0.41396204 0.14500575 0.085083805
0.42044449 0.14489776 0.089392036
0.4086 0.15475288 0.081106797
0.4148199 0.15530483 0.085336141
0.42045459 0.15478584 0.089394182
0.40899995 0.16500355 0.081186198
0.41526258 0.16531332 0.085770749
0.42000002 0.1625255 0.08929754
0.40845454 0.17534925 0.081077933
0.41389048 0.17493831 0.085544035
0.40828571 0.18351309 0.080632769
0.41368654 0.18536177 0.085120268
0.4086 0.19675186 0.080818638
0.41406855 0.19485961 0.085034788
0.40767747 0.20530127 0.081760421
0.41345161 0.20485941 0.08664199
0.40679631 0.21562442 0.082684726
0.41183329 0.21472155 0.087524235
0.30434781 0.22964366 0.088343434
0.31740746 0.22946437 0.086322792
0.32411203 0.22927557 0.085143544
0.33439773 0.22941498 0.083883405
0.34447062 0.22799236 0.085278921
0.35358042 0.22570746 0.085210331
0.36519486 0.2268099 0.084766284
0.37376761 0.22540919 0.085171729
0.38409579 0.22472483 0.085323572
0.39476058 0.22504652 0.084997468
0.40363225 0.22302099 0.085004508
0.4107143 0.22117759 0.088704087
0.29461357 0.23133941 0.085606113
0.30439827 0.23103654 0.083890274
0.3142122 0.23048779 0.084522866
0.3247273 0.2304925 0.080491744
0.33626926 0.23029351 0.08705505
0.42570719 -0.24488105 0.094926491
0.42672843 -0.23497905 0.094903789
0.42665684 -0.22566783 0.094301656
0.43073684 -0.22335692 0.098993361
0.42584106 -0.21504045 0.093277387
0.43100011 -0.21521646 0.098259725
0.4265849 -0.2051422 0.093354151
0.43090001 -0.20508355 0.098238669
0.42681244 -0.19520701 0.092717536
0.43096775 -0.19514622 0.097648337
0.42614889 -0.18492134 0.093319856
0.43140915 -0.18551856 0.098136656
0.42593479 -0.17506716 0.093244076
0.43235713 -0.17499658 0.098138675
0.4264524 -0.16506083 0.093015008
0.43177781 -0.16530716 0.097973377
0.42578727 -0.15512431 0.093496963
0.43173927 -0.15447631 0.098197892
0.4257805 -0.14508381 0.093048237
0.43267739 -0.14502668 0.098102964
0.42521057 -0.13502693 0.092912063
0.4334814 -0.13525343 0.098285921
0.42402512 -0.12492132 0.092652962
0.43289667 -0.1250532 0.098188467
0.42456102 -0.11497355 0.092758492
0.43296674 -0.11507764 0.098168947
0.42519999 -0.10501496 0.092909947
0.43313795 -0.10513379 0.098172568
0.42548794 -0.094964467 0.092935868
0.43240005 -0.094924912 0.098039933
0.42606241 -0.085121103 0.092688523
0.43292314 -0.084896892 0.097690769
0.4264138 -0.075071685 0.092636079
0.43351275 -0.074972019 0.097745441
0.42553842 -0.064712629 0.092945866
0.43341392 -0.065087289 0.098165005
0.42558974 -0.054943219 0.092955984
0.43258622 -0.055106986 0.098116964
0.42533323 -0.045186669 0.093357854
0.43181822 -0.044414207 0.09827593
0.42659524 -0.035116654 0.092711292
0.43188232 -0.034594547 0.097683392
0.42583731 -0.024798512 0.093036994
0.43222231 -0.025771681 0.097924247
0.42442101 -0.014787888 0.093611456
0.43100002 -0.015091123 0.098846927
0.42465532 -0.0051283683 0.093708284
0.43100005 -0.0053205104 0.098860838
0.42460021 0.004999707 0.093280703
0.43145004 0.005081384 0.098329991
0.42571807 0.015015712 0.093061194
0.43130007 0.015220362 0.097789362
0.42550993 0.025389735 0.093577869
0.43086964 0.025058191 0.098396227
0.42544237 0.034647517 0.093619145
0.43094447 0.035652623 0.098327428
0.42649993 0.045203362 0.093113072
0.43209684 0.044875074 0.09787254
0.4253251 0.055030465 0.092936032
0.4316999 0.054840054 0.097880691
0.42492017 0.065470926 0.093230225
0.43120828 0.064412922 0.098106235
0.41900003 0.074911058 0.090070553
0.424804 0.074680462 0.094071418
0.43105265 0.07490325 0.099013187
0.4242309 0.084965959 0.093658835
0.43168429 0.085064515 0.098356992
0.41900009 0.094746694 0.090070553
0.42473164 0.095023088 0.093747236
0.43180957 0.095213018 0.098436333
0.41900003 0.10103002 0.090070553
0.42467344 0.10516506 0.093541518
0.43064713 0.10520937 0.098176375
0.42516318 0.1151071 0.093422055
0.43090001 0.11504712 0.098204568
0.42571712 0.12486701 0.09373273
0.43104362 0.12579957 0.098788597
0.42478848 0.13489369 0.093321666
0.43104354 0.13479187 0.098523997
0.42567936 0.14503455 0.093801029
0.43100017 0.1451398 0.098890468
0.42528132 0.15507296 0.093899496
0.43060008 0.15497841 0.099148624
0.42432919 0.16519022 0.094463587
0.43028572 0.16260053 0.099437259
0.41900009 0.17593724 0.090070553
0.42404234 0.17473334 0.09500289
0.41900006 0.18283659 0.090070553
0.42435187 0.1848862 0.094301112
0.43083331 0.18597408 0.099455625
0.42476004 0.19481377 0.093456842
0.43104768 0.19528666 0.098648921
0.41787502 0.20777568 0.090811685
0.42451733 0.20506848 0.094088659
0.43100011 0.20467432 0.098903388
0.41664445 0.21604082 0.092550807
0.42341822 0.21508394 0.096981682
0.43024999 0.21152879 0.099573493
0.29563335 0.229432 0.097781882
0.30408683 0.22899419 0.094869308
0.3147189 0.2292472 0.093750991
0.32428119 0.22868481 0.095281482
0.33413684 0.22816126 0.095982395
0.34435555 0.22770709 0.094545297
0.35417712 0.22615831 0.095086902
0.36465797 0.22618705 0.095506646
0.37390113 0.22534691 0.094735421
0.3846471 0.2243977 0.094956912
0.39435089 0.22408365 0.09482345
0.40501413 0.22434345 0.095086694
0.41331512 0.22199024 0.095483467
0.42066669 0.22050624 0.099004596
0.28802249 0.23255193 0.094863236
0.29338259 0.2307571 0.094015524
0.29999998 0.23041229 0.092364617
0.31590626 0.23015352 0.096961625
0.32050002 0.23070122 0.099807076
0.33737502 0.23029529 0.091322094
0.42900002 -0.22049409 0.10786194
0.4319334 -0.22118706 0.1032764
0.42895347 -0.21537799 0.10762725
0.43170694 -0.21454901 0.1033205
0.42900002 -0.20939352 0.10887109
0.43347818 -0.20505789 0.10539144
0.43617103 -0.19559591 0.10447745
0.4412778 -0.19202644 0.10823858
0.4363215 -0.18612966 0.101861
0.44368085 -0.18506701 0.10703962
0.4370476 -0.17503631 0.10173555
0.44356525 -0.1751924 0.10694967
0.43662503 -0.1654864 0.10186467
0.44383341 -0.16497685 0.10666724
0.43664998 -0.15509212 0.10156973
0.44413155 -0.15543796 0.10639429
0.43768746 -0.14593679 0.10168172
0.44365996 -0.14453457 0.10633742
0.43862504 -0.1349033 0.10138324
0.44349164 -0.13503806 0.1060952
0.43806258 -0.12429488 0.10183336
0.44378439 -0.12512811 0.1067462
0.43785712 -0.11594088 0.10162909
0.44348904 -0.11473636 0.10591289
0.43784612 -0.10445754 0.10164905
0.44366667 -0.10511074 0.10628125
0.43699995 -0.095081374 0.10165082
0.4431667 -0.095074892 0.10671935
0.43794736 -0.085255049 0.10184369
0.44295248 -0.085112639 0.10621635
0.43807697 -0.074547172 0.10146471
0.44279999 -0.075232409 0.10572506
0.43799996 -0.064905837 0.10188341
0.44302565 -0.064993791 0.10619703
0.43704349 -0.054551963 0.10199697
0.44287807 -0.05517431 0.10689797
0.43648648 -0.045075811 0.10243656
0.44268748 -0.04480524 0.10753185
0.43659252 -0.035311859 0.1019567
0.44300014 -0.034800235 0.10698559
0.43704548 -0.024528999 0.10194267
0.44273919 -0.025263913 0.1068168
0.43599996 -0.015489143 0.10261784
0.44214821 -0.015078127 0.10753039
0.43588889 -0.0047809356 0.10259224
0.44233337 -0.0051962822 0.10757537
0.43620008 0.0051353541 0.10249494
0.4429999 0.0052144541 0.10773777
0.43581587 0.01513668 0.10235026
0.4422594 0.01508839 0.10755757
0.4359999 0.024170734 0.10246398
0.44355175 0.024884338 0.10751322
0.43540743 0.035223689 0.10190824
0.44379166 0.035274491 0.10701811
0.43703845 0.04476478 0.10201675
0.44387817 0.045193221 0.10724179
0.43700001 0.0554724 0.10204756
0.44323802 0.054888356 0.10705414
0.43627903 0.065288879 0.10274038
0.44207403 0.064493909 0.1075893
0.43619999 0.074948274 0.10306627
0.44213042 0.075454608 0.10770604
0.4363572 0.085200772 0.10201578
0.44345939 0.085187607 0.10740183
0.43662164 0.095337629 0.10246792
0.44239399 0.094778419 0.10740179
0.4361538 0.10503379 0.10249773
0.4426071 0.10516044 0.10764191
0.4362222 0.11512605 0.10232872
0.44212517 0.11502183 0.10733009
0.43615395 0.12505169 0.10307593
0.442 0.12445784 0.10770167
0.43551117 0.13515045 0.10305074
0.4413158 0.1347117 0.1078182
0.43569228 0.1449157 0.10336125
0.44215003 0.14509533 0.10804944
0.43563414 0.15507393 0.10344955
0.44194743 0.15514594 0.10802738
0.4351064 0.16476624 0.10355859
0.4415333 0.16552451 0.10834854
0.43394876 0.17501043 0.1030279
0.44142106 0.17524053 0.10784428
0.43560722 0.18488352 0.10316018
0.44182608 0.18579112 0.10763205
0.43578947 0.19544628 0.1028836
0.44188893 0.19489981 0.10758251
0.43550009 0.20516162 0.10381419
0.44099998 0.20409198 0.10863234
0.4084 0.21971211 0.10873318
0.41187501 0.21956722 0.10876385
0.42719999 0.21836551 0.10178263
0.43438265 0.2153205 0.10544395
0.44000003 0.21218312 0.10907511
0.287 0.22987935 0.10962828
0.2954627 0.22910057 0.10535556
0.3038536 0.22828864 0.10484578
0.31409827 0.2293525 0.10577243
0.32473817 0.22892502 0.10500979
0.33407655 0.22683178 0.10478203
0.34439993 0.22598797 0.10532131
0.35444662 0.22577485 0.10514889
0.36447954 0.22552113 0.10507134
0.37417865 0.2252557 0.10517795
0.38500005 0.22504054 0.10528505
0.39383751 0.22308621 0.10530462
0.40461552 0.22253476 0.10476287
0.41422924 0.22144546 0.1039037
0.42416003 0.22149599 0.10553037
0.4307273 0.22055964 0.10806633
0.28722486 0.23127751 0.10619821
0.29190555 0.23053811 0.10526247
0.31674999 0.23019636 0.10169189
0.32050002 0.23070121 0.10093796
0.42887494 -0.21387263 0.11085721
0.42900002 -0.20888895 0.11088938
0.43578431 -0.20416479 0.11261328
0.44000003 -0.20130733 0.1157288
0.4387778 -0.19822462 0.11141011
0.44204885 -0.19351718 0.11435155
0.45250002 -0.19078912 0.11816253
0.44780004 -0.18629572 0.1119926
0.45414281 -0.18505903 0.11643324
0.44857141 -0.17575769 0.11150171
0.45448884 -0.17485859 0.11602623
0.46000001 -0.1704212 0.11944339
0.44855559 -0.16676646 0.11037557
0.45352933 -0.1645454 0.11457288
0.46000001 -0.16609293 0.11944339
0.44875005 -0.15319146 0.11032063
0.45376796 -0.15510643 0.11505355
0.44866669 -0.14564042 0.11087227
0.45451066 -0.14508644 0.11584383
0.44850007 -0.13504069 0.11118224
0.45387489 -0.13518314 0.11532553
0.46000001 -0.13417198 0.1194434
0.44855559 -0.12502797 0.11119601
0.45443901 -0.12478545 0.11555742
0.45999998 -0.12713856 0.11944339
0.44847369 -0.11523587 0.11062105
0.45461687 -0.11500033 0.115825
0.44864288 -0.105756 0.11084127
0.45416662 -0.10491212 0.11577918
0.44900003 -0.095053032 0.11130619
0.45497862 -0.094914399 0.11603145
0.44846663 -0.085130103 0.11061192
0.45475519 -0.084731475 0.11579972
0.44800001 -0.07481841 0.11000444
0.45394108 -0.07518962 0.1149081
0.45999998 -0.07325165 0.11944339
0.44818184 -0.064161129 0.11024112
0.45420009 -0.065038502 0.11521258
0.46000001 -0.068706974 0.11944339
0.44788891 -0.054784369 0.11155832
0.45415792 -0.055012215 0.11630347
0.44736841 -0.044994615 0.11140128
0.45418429 -0.044865023 0.11633765
0.44815382 -0.035149284 0.11134016
0.45365903 -0.034777075 0.11574321
0.44800007 -0.024763051 0.11158625
0.45311117 -0.025044432 0.1160612
0.44705266 -0.01496691 0.1113781
0.45307493 -0.014915617 0.11605285
0.447579 -0.0050075627 0.11145383
0.45405558 -0.0047995877 0.11630412
0.44788891 0.0050959685 0.11150017
0.45437843 0.0047831312 0.11631431
0.44747368 0.014987757 0.11148296
0.45292503 0.014918534 0.11601336
0.44821429 0.024180653 0.11118703
0.45327914 0.025483239 0.11562207
0.44860005 0.036407888 0.11015178
0.45380655 0.034869812 0.11479718
0.44890004 0.045303769 0.11117601
0.45410427 0.045065302 0.11585043
0.44850001 0.05556567 0.11135826
0.45339996 0.054953553 0.11562779
0.44689479 0.064927645 0.11128359
0.45408109 0.065029576 0.11629659
0.44706672 0.074146189 0.11124875
0.45489731 0.075192675 0.11631645
0.44888893 0.085005388 0.11127864
0.45444894 0.084984109 0.1158722
0.44755 0.094750836 0.11147422
0.45346335 0.095133506 0.11634758
0.44747373 0.10501641 0.11142762
0.45376077 0.10486071 0.11669418
0.44710532 0.11489212 0.11139125
0.45405892 0.11488695 0.11621057
0.46000001 0.11957254 0.11944339
0.44742113 0.12499867 0.11141506
0.45489281 0.12519719 0.11598152
0.46111113 0.12528345 0.11973189
0.44668189 0.13535599 0.11140225
0.45417947 0.1350103 0.1163769
0.46000001 0.13039321 0.11944339
0.44713044 0.1445795 0.11171391
0.45310006 0.1451662 0.1163772
0.44755006 0.15528408 0.11147459
0.45431429 0.15488791 0.11629294
0.44595012 0.16522191 0.11128698
0.45506242 0.16441064 0.1165963
0.46000001 0.16772449 0.11944339
0.44626099 0.17588222 0.11145131
0.4548611 0.17475817 0.11674874
0.44621438 0.18511538 0.11163079
0.45348275 0.18470854 0.11668848
0.44689652 0.19533215 0.11187517
0.45316675 0.19507368 0.11660697
0.44609097 0.2052629 0.11307065
0.45272413 0.20455696 0.11796012
0.39366665 0.21992768 0.11549108
0.40849999 0.2195736 0.11183763
0.41419151 0.21905841 0.11459932
0.42362857 0.21929793 0.11637446
0.43561366 0.21921191 0.11545281
0.44429126 0.21587299 0.11497262
0.45072728 0.21306513 0.118771
0.28860003 0.22952935 0.11717267
0.29462436 0.22911143 0.11507362
0.30389914 0.22841434 0.11489595
0.31480935 0.22886574 0.11522946
0.32411021 0.22788937 0.1147628
0.33469132 0.22721037 0.11500284
0.34434959 0.22554204 0.11492508
0.35451895 0.2246311 0.1149963
0.36468133 0.22400363 0.11495287
0.37443039 0.22346812 0.11492287
0.38442579 0.22223261 0.11473854
0.39372721 0.22075748 0.11464988
0.40448445 0.22100195 0.11483541
0.41228575 0.22049275 0.11757332
0.42559999 0.22088043 0.11164462
0.43175 0.22038917 0.11301848
0.28754637 0.23106481 0.11499226
0.28999999 0.2302358 0.11384401
0.45833334 -0.19136508 0.12080701
0.46553335 -0.19239815 0.12460735
0.47100005 -0.19240625 0.12830158
0.46480644 -0.18467875 0.12316681
0.47195649 -0.18556365 0.12829404
0.46493334 -0.17486925 0.12302569
0.47232142 -0.17478459 0.12824027
0.46507159 -0.16471794 0.12326594
0.47200003 -0.16540247 0.12840444
0.46422216 -0.15494488 0.12382562
0.47044447 -0.15437227 0.12879521
0.46451116 -0.1452056 0.12370759
0.47075006 -0.14395252 0.12860245
0.46554774 -0.13484518 0.12402077
0.47075006 -0.13564472 0.12860245
0.46502313 -0.12514113 0.12393582
0.47127277 -0.12460864 0.12882096
0.4642565 -0.11531963 0.12349682
0.47106266 -0.11433736 0.12848075
0.46405271 -0.10507061 0.12320289
0.47138894 -0.10478012 0.12850046
0.46472988 -0.094967529 0.12339668
0.47227785 -0.09497983 0.12874301
0.46533331 -0.08509893 0.12357184
0.4727222 -0.085065208 0.12886404
0.46476755 -0.074757673 0.12389252
0.47060004 -0.075938381 0.12861668
0.46432716 -0.064903237 0.12435166
0.45900002 -0.058840189 0.12026345
0.46443474 -0.055021774 0.12404753
0.47049999 -0.054224838 0.12881039
0.4645651 -0.04501475 0.12394054
0.47055551 -0.044827588 0.1288256
0.45875007 -0.034529574 0.12019795
0.464279 -0.034903858 0.12475479
0.47000003 -0.035927337 0.12904204
0.45847067 -0.025593849 0.12063283
0.46402511 -0.024635296 0.12521644
0.47000003 -0.026529826 0.12977912
0.45850003 -0.017250625 0.12013245
0.4644857 -0.014745268 0.12389374
0.47214293 -0.014190219 0.12886398
0.46427488 -0.0046375324 0.12356596
0.47157145 -0.0057823691 0.12870838
0.45900005 0.0054027871 0.12026345
0.46437851 0.0048023597 0.12433714
0.47111109 0.0049922881 0.1289777
0.45800003 0.015087271 0.12000144
0.46466663 0.014758728 0.12448888
0.47255558 0.015009646 0.12937316
0.45844445 0.02534939 0.12011789
0.46371797 0.024909364 0.12424822
0.47025001 0.024476659 0.12874196
0.45900005 0.035094917 0.12026344
0.46394739 0.034926098 0.12438121
0.47000003 0.03538318 0.12867354
0.45877779 0.044788823 0.12020522
0.46419457 0.045042362 0.1243616
0.47077778 0.044856623 0.12888645
0.45809096 0.055009637 0.12012341
0.46384612 0.055105321 0.12456299
0.47033334 0.053108681 0.12876476
0.45875001 0.062594399 0.12019795
0.46425998 0.065112598 0.1246015
0.47000003 0.066339687 0.12977912
0.46506 0.075027287 0.12437688
0.47000003 0.074815869 0.12885779
0.45880002 0.087961614 0.12021105
0.46444237 0.084775038 0.12459867
0.47000003 0.086240292 0.12977912
0.45853853 0.095298335 0.12072389
0.46402442 0.094765112 0.1252082
0.47000003 0.091215439 0.12977912
0.45890006 0.10568433 0.12120898
0.46409091 0.10502722 0.12592421
0.47000003 0.10061295 0.12977912
0.45850003 0.1121733 0.12013245
0.46465218 0.11474552 0.12491467
0.47000003 0.11627547 0.12941058
0.46657136 0.12491673 0.12388217
0.47105566 0.12540203 0.12828636
0.45900002 0.13874745 0.12026345
0.46491897 0.13467722 0.12350552
0.47205558 0.13492146 0.12868232
0.45844445 0.14504735 0.12011789
0.46543491 0.14454587 0.12433375
0.47209099 0.144218 0.12833817
0.45866668 0.15321343 0.12017611
0.46429044 0.15531242 0.12366436
0.47166669 0.15477861 0.1280203
0.46477357 0.16547175 0.12463211
0.47150001 0.16259502 0.12908395
0.46486372 0.17499341 0.12500769
0.4585 0.18551035 0.12013245
0.46507555 0.18485261 0.12529242
0.47000003 0.18795452 0.12977912
0.45840007 0.19517697 0.12010624
0.4646191 0.19495484 0.12484089
0.47000003 0.19486445 0.12950271
0.45712504 0.20638688 0.12131839
0.46462861 0.20536155 0.125365
0.47025001 0.20478477 0.12888017
0.40791667 0.21941961 0.12798755
0.41540006 0.21953198 0.12560201
0.42410916 0.21919228 0.12513694
0.43441072 0.21856348 0.12498444
0.44422033 0.21756402 0.12502621
0.45424286 0.21520513 0.12440749
0.46295455 0.2124992 0.12798241
0.28669223 0.22927563 0.12782882
0.29428506 0.22844549 0.12468528
0.30444089 0.22789007 0.12504159
0.3148286 0.22794354 0.12490612
0.32422727 0.22688653 0.12501165
0.33473307 0.22679619 0.12505123
0.34408209 0.22465526 0.12500207
0.3545661 0.22356768 0.1247611
0.36456996 0.22289218 0.12502295
0.37424999 0.2229652 0.12490236
0.38463524 0.22315629 0.12498815
0.39416435 0.22181226 0.12508895
0.40406156 0.22093572 0.12508869
0.41317859 0.2205219 0.12304361
0.28695947 0.23089035 0.12339709
0.28999999 0.23023577 0.12271223
0.47458932 -0.1941189 0.13481715
0.48228574 -0.19212617 0.13868234
0.47668964 -0.18514663 0.13282806
0.48321423 -0.18527067 0.1379784
0.47733331 -0.17496851 0.13292955
0.48323074 -0.17504647 0.13793898
0.47656518 -0.16466427 0.13266712
0.48308703 -0.16528492 0.13759647
0.47550017 -0.15472095 0.13268226
0.48234782 -0.1554133 0.13792728
0.47600004 -0.14499371 0.13312131
0.48316669 -0.14490598 0.13853064
0.4756667 -0.13523106 0.13287513
0.4826501 -0.13442259 0.13815659
0.47592583 -0.12519397 0.13253823
0.4826296 -0.12506355 0.13781098
0.47618517 -0.11518031 0.13261063
0.48333332 -0.11501468 0.13801245
0.47638103 -0.10573131 0.13234408
0.48268744 -0.10477582 0.13736807
0.47684214 -0.09507148 0.13220102
0.48191172 -0.095219024 0.13703987
0.47717401 -0.084497973 0.13278714
0.48186669 -0.085572191 0.1373661
0.47529626 -0.074718267 0.13244665
0.4821924 -0.075203292 0.13772975
0.47418526 -0.064872794 0.13205507
0.48252171 -0.065505669 0.13758315
0.47584617 -0.055054531 0.13247408
0.48330003 -0.054906182 0.13743338
0.47544441 -0.044959005 0.13244654
0.48276001 -0.045172434 0.13793908
0.47511429 -0.035330236 0.13292226
0.48199996 -0.03484419 0.13822955
0.4754 -0.024822539 0.13328888
0.48235294 -0.025254201 0.13826431
0.47649997 -0.015207927 0.1326547
0.48264286 -0.015240267 0.13773407
0.47655562 -0.0050433897 0.1327136
0.48248154 -0.0051038866 0.13776816
0.47625923 0.0050476152 0.13263205
0.48266676 0.0051130601 0.13782054
0.47655562 0.015135486 0.13271321
0.48240739 0.015324164 0.13774736
0.47496304 0.025141146 0.13227051
0.48259997 0.025182938 0.1377579
0.47485194 0.035191853 0.13223977
0.48276907 0.03481476 0.13789502
0.47587994 0.045028538 0.13243626
0.48296419 0.045043219 0.13782558
0.47534791 0.05559409 0.1321833
0.4835161 0.05480051 0.13777176
0.47494295 0.065104395 0.13344826
0.48158818 0.064672478 0.13831067
0.47474006 0.075024329 0.13382357
0.48099998 0.075246833 0.13939999
0.47481588 0.084567174 0.13364373
0.48092863 0.084608808 0.13877757
0.47485188 0.0949241 0.13277948
0.48245007 0.095560931 0.13798621
0.47445837 0.10546912 0.13306032
0.48266667 0.10442116 0.13766958
0.47439289 0.11522244 0.13294998
0.4821052 0.11480992 0.13825682
0.47582757 0.12484266 0.13274357
0.48247826 0.1256599 0.1378665
0.47657701 0.13526559 0.13276209
0.48203701 0.13512535 0.13764177
0.47702637 0.145348 0.13287504
0.48119035 0.14480554 0.13782935
0.47775003 0.15483283 0.13325764
0.48086366 0.1557923 0.13848738
0.47581819 0.16500941 0.13352765
0.48105264 0.16429229 0.13860931
0.46900001 0.1726609 0.13060622
0.47438887 0.17550524 0.13437758
0.48114285 0.17446324 0.13924351
0.47474426 0.18502992 0.13447428
0.48100001 0.18499893 0.13960528
0.47487238 0.19516034 0.13429551
0.48122227 0.19526917 0.13966979
0.47510785 0.20550865 0.13456966
0.48000002 0.20155101 0.13931504
0.40601668 0.21889764 0.13599357
0.41394344 0.21800855 0.13523968
0.42450947 0.21920237 0.13505492
0.4344286 0.21895854 0.13525943
0.44442859 0.21741086 0.13500546
0.45456758 0.21615189 0.13545464
0.46505553 0.215501 0.13426369
0.47265863 0.21269652 0.13650858
0.28623018 0.22767596 0.1344244
0.2920146 0.22696328 0.13500866
0.30498201 0.22848138 0.13514501
0.31453916 0.22743905 0.13517398
0.32440516 0.22658977 0.13552332
0.33436218 0.2249513 0.13524096
0.34389919 0.22337075 0.13475992
0.35444215 0.22332719 0.13512634
0.36445889 0.2234524 0.13477814
0.37441665 0.22267991 0.13512674
0.38442168 0.22157703 0.13530543
0.39443037 0.22100662 0.13489808
0.40255558 0.22060785 0.13319157
0.42999998 0.22000448 0.13289504
0.28377777 0.23033898 0.13739631
0.30100003 0.2304723 0.13515536
0.49266669 -0.20183533 0.14917175
0.4765 -0.19726825 0.14110161
0.48578572 -0.19400606 0.14213751
0.49453846 -0.19430622 0.14662591
0.5 -0.19288546 0.14982447
0.48850006 -0.18500413 0.14178208
0.49530771 -0.18479498 0.14613777
0.48833337 -0.17517641 0.14147913
0.49503574 -0.17470451 0.14572392
0.48800004 -0.16529731 0.14135057
0.49465388 -0.16517545 0.14590104
0.5 -0.1628934 0.14982447
0.48764282 -0.15460522 0.14194413
0.49428573 -0.15513109 0.14654042
0.48700005 -0.14491124 0.14134671
0.49342853 -0.14493231 0.14613689
0.48786661 -0.13460989 0.1421349
0.49312001 -0.13513188 0.14651355
0.48764282 -0.12601094 0.14194413
0.49315628 -0.12466254 0.14629219
0.48844445 -0.11546504 0.14176595
0.49442852 -0.11498479 0.14643393
0.48789996 -0.10455264 0.14172296
0.49400002 -0.10527162 0.14634657
0.48688239 -0.094753325 0.14192045
0.49418527 -0.095121056 0.14692451
0.48680004 -0.08553379 0.14174849
0.49520004 -0.084778249 0.14708793
0.48753336 -0.0758017 0.14196163
0.49340004 -0.074326597 0.14682423
0.48788893 -0.064840689 0.14109531
0.49328956 -0.064729169 0.14577435
0.48811108 -0.054788966 0.14077663
0.49346328 -0.055273846 0.14566477
0.48750001 -0.044556741 0.14190215
0.493931 -0.04520401 0.14664902
0.48680007 -0.035609618 0.14174834
0.49460858 -0.035128858 0.14644393
0.5 -0.035280172 0.14982447
0.48677778 -0.024612403 0.14128222
0.49464282 -0.024639094 0.14606524
0.5 -0.022930503 0.14982447
0.48785713 -0.014421274 0.14208847
0.49365389 -0.015360396 0.14658789
0.48799998 -0.0051612058 0.14221209
0.49381489 -0.005222965 0.14681284
0.48711109 0.0051598419 0.1419532
0.492926 0.0052203587 0.14654887
0.48728576 0.01441528 0.14192213
0.49346149 0.015363362 0.14653063
0.48777777 0.024675595 0.14157246
0.49377769 0.02497831 0.14622423
0.48777777 0.034998611 0.14157246
0.49370587 0.035149898 0.14613454
0.48700005 0.045254841 0.14134671
0.49358812 0.044977259 0.14623681
0.48800004 0.055768348 0.14207937
0.49303344 0.054552782 0.14623418
0.48621053 0.064801909 0.14190216
0.49383339 0.064669266 0.14691663
0.4852778 0.074770853 0.14256091
0.49294439 0.074791044 0.14713278
0.48565227 0.085111827 0.14264779
0.49277267 0.085305721 0.1477154
0.48711109 0.094221212 0.14220804
0.49263328 0.095259018 0.14700374
0.4878571 0.10492844 0.14102273
0.49355876 0.10517927 0.14598836
0.48678574 0.11590057 0.14169468
0.49503124 0.1148476 0.1468139
0.48718178 0.12413725 0.14171301
0.49350002 0.12537371 0.14633472
0.48717651 0.13546519 0.14187105
0.49327585 0.13461986 0.14649357
0.48628002 0.14543448 0.14219357
0.49295235 0.14453854 0.14688747
0.48548001 0.15501803 0.14273624
0.49264711 0.15505153 0.14741901
0.48574999 0.16523369 0.14306936
0.49155557 0.16470714 0.14793798
0.4862223 0.17480345 0.14341187
0.49099991 0.17498519 0.14770629
0.48588005 0.18467991 0.14321977
0.49162501 0.18511194 0.14774995
0.48550007 0.19529237 0.14262633
0.49304 0.1950991 0.14769678
0.47900003 0.20901842 0.14015158
0.48428956 0.20565251 0.14341407
0.49236846 0.20399286 0.14833103
0.3775 0.21977994 0.14952195
0.38616666 0.21962439 0.14840971
0.39589804 0.21941997 0.14659056
0.40343192 0.21736589 0.14492697
0.41484317 0.21763591 0.14473569
0.4245874 0.21711172 0.14518256
0.43438894 0.21639346 0.14520276
0.44420454 0.21686235 0.1447356
0.45463261 0.21681686 0.14467163
0.46468297 0.21593207 0.14534017
0.47493035 0.21513061 0.14420491
0.48373535 0.21325092 0.14645988
0.49000001 0.21036051 0.14913325
0.28592357 0.22778347 0.14518778
0.29484671 0.22700237 0.14542596
0.30403075 0.22630943 0.14481366
0.31454372 0.22511388 0.14475925
0.32439461 0.2247545 0.14433558
0.33412334 0.2234464 0.14499356
0.34444156 0.22304231 0.1451422
0.35507494 0.2232655 0.14507583
0.36420009 0.22192432 0.14531338
0.37468746 0.22227396 0.14514223
0.383432 0.2211628 0.14412761
0.39381582 0.22047244 0.14301115
0.28354543 0.23029508 0.14420851
0.49500003 -0.20317966 0.15065502
0.5 -0.19935434 0.15100063
0.49900001 -0.15141647 0.15069863
0.5 -0.1546603 0.15100063
0.49812508 -0.14529324 0.1504344
0.5 -0.14407487 0.15217678
0.49722221 -0.13508891 0.15016174
0.5 -0.13525367 0.15217678
0.49812502 -0.12536852 0.15043437
0.5 -0.12643248 0.15198076
0.5 -0.11643513 0.15100063
0.5 -0.10408546 0.15100063
0.5 -0.097028509 0.15100063
0.49900001 -0.080401167 0.15069863
0.5 -0.082326531 0.15100063
0.49840003 -0.075495645 0.15133885
0.5 -0.07938613 0.15217678
0.49830002 -0.065515824 0.15060461
0.5 -0.067624547 0.15217678
0.49900004 -0.053990517 0.15069865
0.5 -0.05880335 0.15100063
0.49900001 -0.047534581 0.15069863
0.5 -0.042925205 0.15100063
0.49833336 -0.014063849 0.15049732
0.5 -0.014893419 0.15178473
0.49877781 -0.0052751941 0.15063153
0.5 -0.0099927559 0.15217678
0.49755558 0.0052698432 0.15026242
0.5 0.0047092298 0.15217678
0.49860007 0.013493948 0.15057783
0.5 0.016176779 0.15129466
0.5 0.025292009 0.15100063
0.5 0.035289358 0.15100063
0.49900001 0.049891364 0.15069863
0.5 0.044698626 0.15100063
0.49900004 0.055173494 0.15069865
0.49900001 0.062216334 0.15069863
0.5 0.067633733 0.15100063
0.49820003 0.076763295 0.15045705
0.5 0.072338365 0.15100063
0.49814293 0.085464783 0.15127753
0.5 0.082923792 0.15217678
0.49810004 0.095848486 0.15136468
0.49842861 0.10494299 0.15052606
0.5 0.10380062 0.15188274
0.5 0.11526816 0.15100063
0.49900001 0.12501499 0.15069865
0.4984445 0.13542596 0.15053087
0.49837506 0.14537591 0.15050989
0.49828574 0.1541355 0.15048292
0.5 0.15937412 0.15217678
0.49675 0.16556364 0.15170014
0.5 0.16584301 0.15394104
0.49630767 0.17476295 0.15217942
0.49680951 0.18439957 0.15221009
0.5 0.18760192 0.15452911
0.4981876 0.19512588 0.15221207
0.5 0.19936351 0.15452911
0.49692592 0.20579392 0.15241212
0.5 0.20509729 0.15526421
0.35541669 0.21966828 0.15930527
0.37875 0.21973112 0.15247171
0.38484812 0.21899477 0.15471216
0.39444926 0.2184248 0.15502112
0.40439487 0.21740326 0.15471797
0.41415218 0.2165049 0.15531056
0.42465636 0.21689981 0.15483542
0.43435845 0.21580307 0.15466875
0.44441465 0.21548994 0.15514116
0.45493343 0.21670356 0.15503809
0.46476313 0.21744232 0.15491243
0.47445837 0.21635003 0.1557477
0.48432606 0.21519794 0.15530005
0.49358493 0.21300593 0.15537354
0.5 0.21112511 0.15864566
0.28610379 0.22715123 0.15486574
0.29528144 0.22559986 0.15367433
0.3039999 0.22430266 0.15522826
0.31494978 0.22476482 0.15484558
0.32357261 0.22346626 0.15531413
0.3351599 0.22398703 0.15471813
0.34450004 0.22208735 0.15504555
0.35438842 0.22209702 0.15476367
0.36425 0.22183271 0.15465465
0.37432152 0.22101051 0.15512666
0.38060004 0.22015528 0.15728787
0.28363636 0.23033881 0.15395425
0.48728576 0.20984854 0.16812004
0.35565391 0.21902505 0.1647689
0.36292163 0.21895523 0.16567501
0.37657693 0.21964911 0.16629431
0.38486817 0.21879563 0.16495711
0.3942174 0.21743615 0.16504808
0.40433797 0.21731317 0.16519855
0.41441536 0.21695267 0.164799
0.42460385 0.21642321 0.16512227
0.43451723 0.21571307 0.1652651
0.4448033 0.2150813 0.16557747
0.45395747 0.21450894 0.16512783
0.46445945 0.21598533 0.16479746
0.47521639 0.21502736 0.16500586
0.48318371 0.21150912 0.16423753
0.49441382 0.21140686 0.16438797
0.5 0.21230127 0.16217414
0.28781253 0.22705621 0.16113743
0.29298756 0.22492304 0.16285941
0.30531576 0.22525081 0.16424023
0.31468382 0.22404069 0.16450021
0.32493436 0.22430868 0.16523984
0.33540303 0.2237667 0.165544
0.34411284 0.22166568 0.16495028
0.35145655 0.22072065 0.16543393
0.36711997 0.22057213 0.16265473
0.37364411 0.22053729 0.16361396
0.38050002 0.22018693 0.16190198
0.48720002 0.20984156 0.177837
0.35781252 0.2191024 0.17176455
0.3644501 0.21864672 0.17438784
0.37231579 0.21965952 0.17511722
0.38561329 0.21904065 0.17480801
0.39434659 0.2174824 0.17511478
0.40417591 0.21553214 0.17492183
0.41426831 0.21537164 0.17439601
0.42471156 0.21648146 0.17469266
0.43494031 0.21549551 0.17515562
0.44389996 0.21275163 0.17507254
0.45437509 0.2120268 0.1748402
0.46465632 0.21313798 0.17474988
0.47531042 0.21321942 0.1751716
0.48330241 0.21086161 0.17508778
0.49370366 0.21039593 0.17567894
0.5 0.21112512 0.17393573
0.30740005 0.22611301 0.17122054
0.31588605 0.22484128 0.17447625
0.3246918 0.22272101 0.1749129
0.33418044 0.22121525 0.17454283
0.34444737 0.22160387 0.17495471
0.35435998 0.22201423 0.17518786
0.36184213 0.22141208 0.17817493
0.37618423 0.22061877 0.17399128
0.38083336 0.22052829 0.17663944
0.44540006 0.20950864 0.18828818
0.45166668 0.2098407 0.18846385
0.48523334 0.20944804 0.18436047
0.49440002 0.20905215 0.18525741
0.5 0.20924325 0.18416831
0.32800004 0.21951035 0.18315646
0.33162504 0.21925303 0.18410642
0.35664707 0.2196779 0.18824276
0.36354545 0.21973196 0.18931346
0.37491304 0.21952978 0.18776426
0.3848111 0.21859647 0.18549152
0.39448881 0.21725634 0.18489952
0.40419683 0.21608037 0.18496588
0.41468179 0.21603614 0.18550444
0.4252106 0.21709974 0.18562931
0.43476999 0.21509458 0.18567196
0.44340986 0.21170479 0.18433934
0.45506063 0.21144298 0.18462053
0.46444747 0.21186176 0.18473406
0.47454178 0.21145797 0.18481463
0.48183334 0.21053492 0.18698151
0.3249768 0.22138414 0.18146218
0.33606452 0.2207925 0.18280993
0.34517998 0.22173886 0.18520337
0.35378125 0.22135772 0.18455963
0.36489797 0.22161002 0.18454541
0.37405175 0.22047892 0.18507053
0.38086963 0.22069247 0.18361892
0.43800005 0.20967318 0.19306517
0.44340479 0.20904863 0.19425066
0.45231584 0.20963641 0.19489285
0.48900002 0.20993121 0.1913894
0.49544442 0.20880532 0.19481745
0.3578462 0.21954039 0.19159935
0.36500004 0.2188209 0.19518051
0.3747049 0.21757574 0.19491974
0.38444826 0.21637377 0.19467632
0.39431429 0.21588556 0.19480142
0.40456671 0.2158637 0.19497165
0.41462129 0.21580535 0.19510402
0.42467749 0.21562758 0.19472142
0.4346222 0.21306011 0.1947283
0.44050002 0.21035126 0.19649592
0.45740002 0.21035245 0.19462419
0.46388891 0.21114902 0.19465014
0.47400004 0.21163991 0.19510755
0.48435006 0.21125872 0.19528899
0.49100006 0.2103076 0.19679232
0.34676474 0.22093087 0.19118476
0.35533333 0.22120568 0.19377026
0.36100003 0.22126168 0.1981868
0.44637147 0.20977576 0.20514816
0.45356256 0.20938089 0.20605619
0.46423531 0.20937732 0.20828402
0.4748148 0.20917073 0.20721455
0.48393756 0.20860499 0.20618863
0.49470001 0.2086755 0.20472574
0.5 0.20759663 0.2062801
0.36600006 0.21786222 0.20321597
0.37482697 0.21563384 0.20499882
0.38385719 0.21487983 0.20452985
0.39468962 0.21585478 0.2051952
0.40462074 0.21619874 0.20517205
0.41443247 0.21500282 0.20502391
0.42463636 0.21423623 0.20539843
0.43501282 0.21349114 0.20515828
0.44144127 0.21098149 0.20493281
0.45783332 0.21019185 0.20342505
0.46432006 0.2108634 0.20356977
0.47396666 0.21116209 0.2029625
0.484 0.21062493 0.20170465
0.49066666 0.21026094 0.20127375
0.36250004 0.22221772 0.20245086
0.42520005 0.2099431 0.21872678
0.44733334 0.20969549 0.21179309
0.45551217 0.20929287 0.21478844
0.46486047 0.20843424 0.21512051
0.47394124 0.20814921 0.2145714
0.48355168 0.20829105 0.21493848
0.49436361 0.20894995 0.21457003
0.5 0.20955689 0.21647346
0.37669998 0.21425705 0.21132331
0.38371429 0.21353015 0.21306932
0.39530364 0.21562687 0.2143397
0.40434617 0.21458557 0.2151918
0.41472411 0.21394682 0.21478848
0.42366183 0.21192978 0.21431191
0.43426314 0.21138653 0.21425915
0.44378948 0.21073209 0.21553127
0.45133337 0.21039231 0.2178777
0.5 0.053911876 0.22843109
0.42678782 0.20959561 0.22481252
0.43328574 0.20937558 0.22651084
0.44514289 0.20979086 0.22926137
0.45562261 0.20887911 0.22553322
0.46440002 0.20785858 0.22467028
